0.150249 -0.333951 -0.907246 
0.329049 -0.138396 0.909538 
0.180973 -0.187455 -0.939892 
-0.294758 0.918192 -0.153080 
0.240623 -0.305112 -0.893161 
0.866760 0.141589 -0.397856 
-0.029986 0.959759 0.144363 
0.819464 0.504465 -0.041418 
-0.368443 -0.304673 -0.864057 
-0.832374 0.537594 -0.001210 
-0.557552 0.797991 0.147541 
0.567846 0.147388 -0.766638 
0.429942 0.857228 0.110229 
-0.563733 -0.776600 0.272042 
-0.058841 -0.673348 0.718997 
-0.368216 -0.911565 0.137961 
-0.313495 -0.875839 -0.342527 
-0.248992 -0.932858 -0.209948 
0.168365 0.853660 -0.424559 
-0.126471 0.001935 0.972595 
-0.609721 -0.726257 -0.295798 
0.484378 0.740848 -0.379011 
0.136900 -0.483351 -0.841818 
0.380309 0.183266 0.877627 
-0.774653 0.533519 0.305766 
-0.566297 -0.699760 -0.427814 
-0.773327 -0.623028 0.019015 
-0.793065 -0.249734 0.547872 
-0.384739 -0.804913 0.432557 
0.945517 0.030260 0.191447 
0.767898 0.046626 0.584521 
-0.019598 -0.718639 -0.670652 
0.035966 -0.246094 0.953408 
0.133029 -0.902834 0.363931 
-0.633641 0.749158 -0.089390 
0.849846 -0.354028 0.298493 
-0.227804 -0.494602 0.824358 
0.831146 0.030050 -0.482385 
-0.379523 0.155568 0.900554 
0.698797 -0.260866 0.619905 
0.600951 0.084914 -0.751950 
-0.972107 -0.096234 -0.197174 
-0.830063 -0.055015 -0.541144 
0.550543 0.608901 -0.507585 
0.622196 -0.014396 -0.740118 
-0.612019 0.533165 -0.558730 
-0.837427 0.358760 -0.382905 
-0.792725 0.565951 0.176950 
0.436175 -0.722716 -0.494746 
-0.221355 -0.581967 -0.762452 
-0.227426 0.634551 -0.708299 
-0.585441 -0.599590 -0.527884 
0.021123 -0.592374 -0.781988 
0.551970 -0.093714 -0.794464 
-0.717478 -0.492207 -0.482308 
0.202656 -0.955807 -0.115619 
0.132020 0.148627 0.957763 
0.412375 -0.816916 -0.343807 
-0.224163 -0.958838 0.002778 
0.453502 -0.702290 -0.507034 
0.909800 -0.053109 0.313970 
0.420570 -0.171567 -0.857369 
0.178298 -0.653440 -0.709154 
-0.083770 -0.976961 0.120529 
0.475073 0.739888 0.400411 
-0.990994 -0.074654 0.046818 
-0.816601 0.507779 0.238348 
0.491635 -0.288297 0.788586 
-0.699860 0.117998 -0.689829 
-0.455187 0.865195 0.107041 
0.612663 -0.353271 -0.661469 
-0.963484 0.173926 -0.173077 
-0.011179 -0.130211 0.970974 
0.893160 0.048307 -0.362781 
0.633519 0.106156 -0.724767 
-0.516494 0.762849 -0.340269 
0.661663 -0.688222 -0.187689 
0.461722 -0.316059 0.800681 
0.729615 0.619412 0.073840 
-0.146627 -0.974422 0.021460 
0.409066 -0.434852 -0.767067 
-0.435502 -0.890447 -0.028563 
0.208707 -0.884075 -0.374470 
0.682554 -0.696650 -0.008398 
0.560351 -0.778603 -0.174934 
0.302359 -0.656733 -0.657640 
-0.514076 0.309133 0.784850 
-0.794480 -0.289739 0.526966 
-0.531131 -0.818049 -0.185874 
0.551944 -0.755444 -0.274367 
0.137700 0.436671 -0.859451 
0.071707 -0.078483 0.974341 
-0.642213 -0.593934 0.470072 
-0.172198 -0.445198 0.865208 
-0.324533 -0.771797 0.529499 
0.545248 0.139591 -0.784430 
-0.521845 0.794960 -0.235106 
0.165310 0.760570 0.580443 
-0.795673 -0.443392 0.412317 
0.767316 -0.582776 0.079021 
0.430132 0.409975 -0.763637 
0.103814 0.891853 0.380087 
-0.494428 0.474095 0.708703 
-0.109096 0.274670 0.935151 
-0.406526 -0.893778 0.159939 
0.959320 -0.025022 -0.051266 
0.635221 -0.690496 -0.259543 
-0.656035 0.005906 0.743213 
0.108057 -0.299535 0.928675 
0.460083 -0.414503 -0.747534 
-0.564919 -0.574973 0.581325 
0.366144 0.888737 0.094667 
-0.765103 -0.195951 -0.600237 
0.167902 -0.234985 0.936649 
-0.590935 0.759497 -0.192190 
0.856746 0.390590 -0.190932 
-0.985410 -0.015912 0.151415 
0.725864 -0.496477 -0.408619 
-0.363991 0.038335 -0.912746 
-0.237591 -0.905499 -0.314368 
0.813553 0.121035 -0.495135 
0.344261 0.903036 0.016066 
-0.921387 0.352003 -0.070423 
-0.276243 0.567597 -0.747243 
-0.672290 -0.729571 -0.069410 
0.854859 0.359725 -0.253296 
-0.067634 0.538809 0.815376 
-0.871321 -0.489631 0.010137 
0.737334 0.209996 -0.584872 
-0.069858 0.924305 -0.298663 
0.863005 0.392050 -0.155260 
0.109529 -0.467932 0.855581 
0.659520 0.380131 0.594007 
-0.767289 -0.584951 0.242950 
0.885016 -0.297541 0.242407 
0.820695 -0.125818 0.495400 
0.952235 -0.119052 0.066739 
0.097544 -0.961556 0.193707 
0.409945 0.837099 -0.263099 
0.249460 -0.197385 0.924505 
-0.844391 -0.478443 0.229792 
-0.671308 -0.116553 -0.717751 
0.202814 0.785004 -0.530169 
-0.748896 0.046458 0.652062 
-0.329515 -0.911114 0.208396 
-0.889879 0.183214 -0.396283 
-0.870911 -0.179079 -0.450069 
-0.616011 0.191662 0.751687 
-0.803765 -0.309622 0.500129 
-0.703906 0.156993 -0.676332 
-0.328112 0.402786 0.835347 
0.063525 0.968835 -0.019234 
0.769894 -0.190063 0.550273 
0.399074 0.372982 -0.801616 
0.759421 0.367771 0.463857 
0.832161 0.277172 0.397181 
0.217357 0.695660 0.638959 
-0.134988 0.858468 0.441991 
0.687525 -0.589758 -0.349962 
0.323600 -0.676169 -0.628101 
-0.326793 0.823002 -0.418804 
-0.173178 0.095313 0.961019 
0.594032 0.297240 -0.699879 
0.948086 0.172398 -0.010977 
0.829450 -0.501202 -0.016552 
-0.098589 -0.860095 0.480069 
0.671769 -0.624457 0.322447 
0.542020 0.438128 0.673279 
-0.595615 -0.696614 0.381737 
0.133511 -0.868842 -0.442021 
-0.039893 -0.704291 -0.685431 
-0.829761 0.270990 0.475436 
0.866051 0.409773 -0.078696 
0.924334 -0.273044 -0.005405 
-0.909478 0.350041 -0.190451 
0.317247 0.027722 0.923659 
-0.296283 0.286986 0.890477 
0.218646 0.815789 0.479550 
-0.413338 0.075934 0.893971 
-0.932698 0.334486 -0.011250 
0.517849 0.518564 -0.630129 
-0.495110 0.381721 -0.762610 
0.633574 -0.288042 0.678637 
0.423737 -0.819689 0.318830 
-0.623278 0.368281 0.672552 
0.762918 0.050434 -0.586333 
-0.453346 0.569932 -0.653957 
0.928522 -0.112559 -0.225386 
0.766385 -0.030698 -0.586453 
-0.566718 -0.679073 0.449651 
0.640196 -0.035261 0.729344 
-0.056487 -0.830638 -0.531095 
0.171661 0.951025 0.072251 
-0.478333 0.623866 0.595931 
-0.032146 0.874460 -0.428016 
0.448454 -0.448687 -0.734143 
0.667225 0.660717 -0.216895 
-0.238526 -0.294505 -0.909530 
-0.320611 -0.891489 -0.292684 
0.139120 -0.275397 0.933042 
-0.791462 0.558402 -0.185481 
0.937497 -0.003269 0.221665 
0.507738 0.757354 0.316478 
0.246452 0.691212 0.633180 
-0.689621 -0.053250 -0.708654 
0.324465 -0.569203 -0.726256 
-0.265158 0.740839 0.580550 
-0.600405 0.376218 0.689366 
-0.433487 0.816904 -0.317459 
-0.249754 -0.625192 0.723618 
0.222395 -0.554347 0.779462 
0.248593 -0.657513 -0.682004 
-0.610016 0.347706 0.696697 
0.574192 -0.528411 0.587996 
-0.801684 -0.360298 -0.469194 
0.090666 0.526687 -0.814430 
-0.458371 0.339607 -0.800352 
0.362434 -0.728803 0.547008 
-0.129202 -0.222152 -0.946597 
-0.934734 -0.340646 -0.072980 
-0.465815 -0.772345 -0.413387 
0.713980 0.180111 0.622855 
0.710843 -0.026899 0.657164 
-0.024949 -0.754566 0.631813 
0.016227 -0.140446 0.969835 
0.681235 -0.429464 -0.541154 
-0.148335 -0.961667 -0.183150 
-0.942413 0.143402 -0.278651 
0.663638 -0.643405 0.300318 
-0.984137 -0.156749 0.040656 
0.430698 0.677868 -0.539647 
0.815031 -0.266971 0.454031 
0.664113 0.581285 -0.381150 
-0.672159 -0.510297 -0.527048 
-0.763028 -0.259299 0.584102 
0.385409 -0.806728 -0.402813 
0.209213 -0.927114 0.245511 
0.269153 -0.451408 -0.822245 
-0.562615 -0.523273 -0.622288 
-0.354448 0.763123 -0.497466 
0.693243 0.505108 0.448382 
-0.168831 0.343337 0.901220 
0.240559 -0.753541 0.578558 
-0.811304 -0.347703 0.464542 
0.064239 -0.433352 -0.878139 
0.838182 -0.462927 -0.150812 
-0.590016 0.505631 0.608903 
0.766505 -0.418668 0.422636 
-0.649396 -0.480876 0.578090 
0.320854 0.777876 0.478133 
-0.530777 0.541946 -0.624301 
0.273109 0.062566 0.933790 
-0.367170 0.617435 -0.666641 
0.001563 -0.617824 -0.763157 
0.168803 0.877000 -0.373057 
0.540201 -0.351979 0.730823 
-0.434116 -0.754655 -0.476731 
0.567650 0.023510 0.785167 
0.000466 -0.567930 0.807335 
0.565165 -0.587069 -0.529038 
0.462749 0.298539 0.797394 
-0.017337 0.611150 -0.755382 
-0.817413 0.557588 -0.056733 
-0.426459 -0.097326 0.887438 
-0.961508 -0.072391 0.242913 
0.607263 -0.592636 -0.474212 
-0.533558 -0.052493 0.831987 
-0.952481 -0.222552 0.194921 
-0.699803 0.688221 0.092240 
-0.559930 -0.158430 -0.801274 
-0.112596 0.892478 0.384807 
0.447398 -0.259655 -0.824901 
0.299963 -0.124736 -0.917479 
0.628721 -0.155405 0.721638 
-0.830111 0.304969 -0.443993 
0.182310 -0.679041 -0.685111 
0.313268 -0.767929 -0.516221 
0.629102 -0.719630 -0.190009 
-0.325848 0.544603 0.752154 
-0.015183 -0.929564 0.336892 
-0.457590 0.865527 0.061059 
-0.884154 -0.274481 0.361676 
0.463412 0.842667 -0.022196 
0.635533 0.713385 0.083662 
-0.276358 0.937240 0.078358 
-0.604310 -0.742957 -0.268227 
0.093492 -0.973300 0.138982 
-0.030752 0.564790 0.799208 
-0.979272 0.108647 -0.147461 
-0.882865 0.355102 0.284336 
0.477362 -0.673853 -0.518202 
0.103002 0.007371 0.973730 
-0.296869 0.527224 0.774658 
0.133698 0.912787 0.290591 
-0.735560 0.608752 -0.250329 
-0.641915 -0.761863 0.025283 
0.651308 -0.079785 0.714976 
0.945959 -0.112405 -0.144935 
0.912282 -0.205892 0.238022 
-0.298747 0.902618 -0.236200 
-0.586242 -0.088294 -0.791590 
-0.490112 0.702674 0.481765 
-0.439953 -0.842972 -0.284943 
0.934702 -0.194191 0.152351 
-0.092659 -0.563635 -0.804831 
0.329975 -0.709899 -0.590339 
-0.764299 -0.178777 0.609690 
0.237357 -0.502614 0.805964 
-0.931704 -0.215573 -0.271111 
-0.175834 -0.556666 -0.790415 
0.281424 -0.855777 -0.383848 
-0.361657 -0.108746 -0.909885 
0.186432 0.688601 -0.657277 
-0.182226 0.926695 -0.241112 
-0.938872 -0.023642 0.335022 
0.375287 -0.097011 -0.892855 
-0.772800 -0.424796 0.465652 
-0.072314 0.918599 0.311014 
-0.123485 -0.387336 0.897786 
0.622026 0.639108 0.363056 
0.417483 -0.247563 0.847714 
0.652916 0.661869 -0.249267 
-0.356935 0.907224 0.014726 
-0.899216 0.381878 0.152794 
0.229931 0.925453 -0.169937 
-0.241818 -0.898336 0.340047 
-0.264990 0.746632 -0.573882 
-0.765222 -0.621964 -0.144285 
-0.604257 0.462158 -0.625710 
0.648160 0.570253 0.429902 
0.364770 -0.427986 -0.798601 
0.052432 0.967056 -0.057779 
0.839181 0.378266 0.283991 
0.779036 0.314336 0.473037 
0.320610 0.416114 -0.817566 
0.001608 -0.648237 -0.739987 
0.697559 -0.649880 0.197441 
0.022530 0.946194 -0.209514 
0.884757 -0.330750 -0.208849 
-0.935008 -0.161133 0.298235 
-0.521536 -0.695364 0.483106 
-0.582552 0.042827 0.800036 
-0.572117 -0.304359 0.751683 
0.448608 -0.532091 0.687506 
-0.021086 -0.772887 -0.609560 
-0.267397 -0.696716 0.650836 
0.079483 0.885794 -0.392280 
0.501693 -0.221417 -0.798900 
-0.090886 -0.599971 0.781885 
-0.054010 0.956428 0.171885 
-0.763296 -0.632528 0.061338 
0.878519 0.111763 0.384695 
0.503041 -0.574931 -0.605509 
-0.537989 -0.640821 0.539445 
-0.000505 0.003712 -0.978149 
0.700616 0.577819 0.327658 
0.667678 -0.491168 0.511295 
0.905690 0.146248 0.285971 
-0.859900 0.488557 0.058446 
0.870110 -0.327856 -0.267801 
0.622945 0.292327 -0.674767 
0.782122 -0.569856 -0.060603 
-0.713113 0.354777 0.588258 
-0.706256 0.526123 -0.446403 
0.710248 -0.513220 0.422490 
0.902002 -0.129642 -0.319549 
0.690661 0.673723 0.018614 
-0.351570 0.511191 -0.758533 
-0.372458 0.220018 0.883737 
0.360441 0.784801 -0.432894 
-0.657247 0.137307 -0.727697 
0.336356 -0.593804 0.700505 
-0.392995 0.832537 -0.337084 
-0.432966 0.758107 -0.447457 
-0.055240 -0.493405 0.849833 
-0.944525 0.260791 0.163939 
-0.163598 -0.700558 0.680995 
-0.380044 -0.792143 -0.458090 
0.590046 -0.291617 0.716364 
0.323053 0.408579 0.820441 
-0.566607 0.742655 -0.312930 
0.635622 0.704990 0.138241 
0.515833 0.116106 0.812663 
-0.020949 0.835225 0.503093 
-0.068564 -0.966247 0.191284 
-0.083412 0.959983 -0.134774 
0.711574 -0.553058 0.363008 
-0.417614 0.528503 0.716727 
-0.137869 0.760779 -0.592028 
0.357431 -0.851653 0.330691 
-0.331341 -0.787418 0.504193 
0.082661 -0.448987 0.870244 
0.541618 0.777458 -0.179592 
0.272809 0.917513 -0.139878 
0.719110 0.508701 0.389833 
-0.806773 -0.481531 -0.328030 
-0.201154 0.144509 0.952032 
-0.714330 0.659005 0.165644 
-0.793727 -0.178817 0.576185 
0.374789 0.646019 -0.614152 
-0.387890 0.894910 0.016851 
0.675031 0.556627 -0.397006 
0.355745 0.310143 -0.847082 
-0.300395 -0.636189 -0.693883 
0.530688 -0.214693 -0.781486 
-0.343306 0.093133 -0.916114 
-0.692529 -0.572872 -0.428737 
0.400748 -0.464155 0.760157 
0.530102 -0.051324 0.814312 
-0.413137 0.109522 0.890729 
0.026169 0.882333 -0.408001 
0.051272 0.090776 0.972064 
-0.804668 -0.376090 0.456933 
0.154027 -0.751253 0.615662 
-0.966031 0.180090 0.146212 
-0.718791 -0.582940 -0.360290 
0.828800 -0.436970 -0.237458 
0.750566 -0.326990 0.521440 
0.090408 0.725675 -0.636612 
0.076527 -0.900033 -0.384417 
0.155340 0.462264 0.843441 
0.414333 0.076570 -0.875024 
0.609377 -0.708328 0.262757 
-0.080777 -0.945242 0.260768 
0.821201 -0.019200 0.506422 
0.296208 -0.918558 0.179368 
-0.352999 -0.521818 0.764168 
-0.844576 0.474666 0.190926 
-0.125135 0.954534 -0.149409 
-0.653304 -0.611067 -0.443758 
-0.292579 0.234733 0.908087 
0.786065 -0.550924 0.127813 
0.479984 0.176219 0.825835 
-0.770916 -0.500481 -0.385369 
0.700207 -0.494953 -0.451994 
-0.815039 0.435953 0.354326 
0.005271 -0.924627 -0.338903 
-0.389467 0.827327 0.355678 
0.963777 -0.007193 0.067248 
-0.318252 -0.541575 -0.762828 
-0.399540 0.212819 0.873968 
0.212873 -0.822785 0.495684 
0.720956 0.386712 -0.508270 
0.831579 -0.479580 -0.124807 
-0.042362 -0.974311 -0.172927 
0.768839 0.575292 -0.030632 
-0.162034 -0.972353 -0.013952 
0.083641 0.091747 0.969151 
0.383681 -0.356502 0.824297 
-0.583798 -0.805205 0.032531 
0.003880 -0.855448 -0.486741 
-0.285359 -0.186129 -0.921374 
-0.222490 0.843804 -0.439067 
0.611054 -0.472759 0.590905 
0.323285 0.514072 0.756236 
-0.970605 0.045492 0.224396 
-0.614991 -0.783290 0.023159 
0.288729 0.625727 0.680152 
-0.325056 0.225742 -0.897782 
-0.424483 0.876807 -0.053114 
-0.945243 0.041810 0.302012 
0.918938 -0.065275 0.279772 
0.571240 0.363194 -0.686103 
-0.367359 0.500075 0.762821 
0.565884 0.662707 0.417493 
0.315271 -0.928982 -0.033930 
-0.161576 0.900982 -0.337631 
-0.749221 0.495727 0.415681 
-0.447896 -0.808834 0.361766 
-0.622360 0.738266 0.193605 
0.933661 -0.245425 0.021470 
-0.437022 -0.018223 -0.881912 
0.064352 -0.950616 -0.240151 
0.783629 0.500455 -0.249217 
0.101435 -0.280352 -0.932170 
0.686867 0.297421 -0.608770 
-0.244267 -0.957057 -0.037348 
0.276425 0.025803 -0.932210 
0.450707 0.142990 0.846157 
0.053554 -0.667771 -0.720328 
0.655940 -0.614561 -0.373474 
0.471098 0.573786 -0.617015 
0.592641 -0.336440 0.694010 
-0.176119 0.719455 0.636022 
0.406794 -0.218969 0.859188 
-0.649592 0.196036 0.720901 
-0.112909 -0.698874 -0.684635 
0.884128 0.149243 -0.349712 
0.618015 -0.435570 -0.611595 
0.483720 0.245008 0.803137 
0.445269 -0.429905 0.752641 
0.278227 0.924954 -0.037359 
-0.272269 -0.935166 0.198610 
0.691435 -0.616271 0.301097 
0.238976 0.447379 -0.828401 
-0.625821 -0.747124 0.199624 
-0.408944 -0.740665 -0.517380 
-0.320421 -0.806203 0.480868 
0.436454 0.349335 0.793994 
0.659652 0.033071 0.707487 
0.390606 0.624059 -0.628242 
0.340010 0.007156 0.916456 
-0.803327 0.310419 -0.485003 
-0.681573 -0.724906 -0.038329 
-0.028499 -0.969052 -0.197490 
0.600122 -0.558393 -0.523705 
0.177161 -0.790939 -0.552788 
0.812076 -0.521860 -0.090518 
-0.717435 0.128270 -0.669211 
-0.350496 -0.550416 0.744074 
-0.605170 0.741970 0.219123 
-0.941638 -0.316111 -0.102368 
-0.562444 -0.787325 -0.231171 
0.033558 -0.417533 -0.887590 
0.537756 -0.785145 0.217334 
0.636018 -0.725800 -0.130780 
-0.164850 -0.953096 -0.209341 
-0.269267 -0.003883 -0.948412 
0.085951 -0.886614 0.417752 
-0.233597 0.575122 0.757704 
-0.120378 0.783001 -0.565250 
-0.198056 0.730168 -0.619597 
-0.444244 0.781143 0.395257 
0.161412 0.957395 -0.058240 
0.616480 0.335413 0.663456 
0.647521 -0.530719 0.493071 
0.534570 -0.806089 -0.142600 
-0.944190 -0.301136 -0.126706 
-0.059864 -0.874175 0.461094 
0.442226 0.515206 0.688429 
0.113084 0.925006 0.259917 
0.297623 -0.378646 -0.845601 
0.880595 -0.262226 -0.293150 
0.709502 -0.469131 -0.463006 
0.583397 -0.045220 0.777773 
0.752658 0.264963 -0.541429 
0.085055 0.263615 0.936833 
-0.933505 0.219081 0.250924 
0.280490 -0.221481 -0.906146 
0.036714 -0.283822 -0.936963 
0.473234 -0.022752 0.852686 
-0.133545 -0.977571 -0.004437 
-0.447877 -0.149378 -0.866123 
-0.581745 0.448909 0.662130 
0.070429 0.211865 0.956151 
-0.632969 0.719039 0.227248 
-0.674068 -0.559573 0.470208 
0.705414 -0.230376 0.623845 
-0.163687 -0.910637 0.344978 
0.404169 0.871912 -0.085546 
-0.159677 -0.339730 0.912940 
0.711662 0.644698 0.047280 
0.878359 0.207284 -0.332631 
-0.676078 0.063435 -0.720547 
0.594064 0.338974 0.681743 
0.820006 0.308279 -0.400119 
-0.040566 0.082728 0.979438 
0.739089 0.079992 0.621599 
0.924057 -0.257531 0.118154 
0.411311 -0.594342 0.660854 
0.221219 0.107935 -0.941057 
-0.814153 0.248870 -0.507746 
-0.281900 -0.448374 -0.831717 
0.108220 0.618314 0.748650 
0.363496 0.869680 -0.208511 
-0.669298 0.452563 0.569227 
0.366499 0.255510 0.862724 
0.600643 0.743182 -0.129120 
-0.542837 0.638724 0.515398 
-0.144821 0.392665 0.885119 
0.310386 0.333101 0.860900 
-0.050000 -0.944995 0.273568 
-0.974151 0.197070 -0.024707 
-0.729758 0.295909 0.599182 
0.313555 -0.222012 -0.896252 
-0.037519 -0.972134 0.182111 
0.382841 0.845683 -0.272524 
0.020732 0.969886 -0.051709 
-0.285227 0.379580 0.862184 
0.244745 0.200868 0.922348 
0.457916 0.769293 -0.358584 
-0.700059 0.174306 0.683344 
0.278681 -0.923009 -0.167541 
-0.016225 -0.633143 0.753872 
0.591280 0.384390 -0.656118 
-0.264313 0.941686 0.016655 
0.616720 -0.331678 0.676037 
-0.009375 0.742380 -0.628278 
-0.308896 -0.842274 0.424173 
-0.945415 0.072789 0.293759 
0.111207 0.711432 -0.650472 
-0.760901 0.440899 -0.439533 
-0.179877 0.890951 -0.357537 
0.694318 0.549454 0.385325 
0.115359 0.256749 0.934843 
-0.781273 0.194650 -0.580495 
-0.077333 -0.940543 -0.279537 
0.325538 0.167449 -0.899119 
0.054406 -0.057807 -0.974849 
-0.443706 0.679430 -0.549069 
0.082450 -0.012593 0.976286 
0.270689 -0.402913 -0.843506 
-0.343465 0.895987 -0.177850 
0.804874 0.325172 -0.419197 
0.788994 -0.559624 -0.090595 
0.108716 -0.965865 -0.147552 
0.351450 -0.912205 -0.080206 
0.703240 -0.323793 0.586699 
0.899379 -0.266121 -0.219621 
-0.671342 -0.710464 0.194072 
-0.134469 0.913856 0.312349 
-0.911516 -0.269802 0.298681 
0.417649 0.729333 0.480035 
0.787640 0.103980 0.548580 
-0.308528 0.352291 -0.856727 
-0.845926 -0.144574 -0.498241 
-0.122962 -0.088640 0.974568 
0.449169 0.527603 -0.672618 
0.842626 0.358684 -0.289178 
-0.309742 0.814745 -0.451066 
-0.494218 -0.122431 -0.845503 
0.641788 0.691924 0.194193 
-0.457652 0.671895 0.551424 
-0.577884 0.704138 0.369529 
-0.084606 0.237535 -0.946652 
-0.940249 0.290122 0.142980 
0.933407 0.206826 0.084271 
-0.593205 -0.240072 -0.753019 
-0.229245 0.892411 -0.318698 
-0.201663 -0.445946 0.858293 
0.545801 0.005827 0.802312 
0.377607 0.659146 0.594804 
0.829295 -0.284971 0.411711 
0.171744 -0.773682 -0.578296 
-0.179100 -0.038258 -0.960222 
0.898000 -0.302364 0.184877 
0.083230 -0.155379 0.962376 
0.864393 0.255171 0.336010 
-0.026051 0.280827 0.937277 
0.499795 -0.702580 0.455758 
-0.063354 -0.858615 -0.484565 
-0.713408 -0.465388 0.518078 
0.486301 0.403691 0.736808 
-0.852796 0.216321 0.457519 
-0.399506 0.883541 -0.116192 
-0.233217 -0.157717 0.947406 
-0.673092 -0.191414 -0.706150 
-0.415146 0.816566 -0.349696 
-0.565533 0.317542 -0.742415 
0.414141 -0.374559 0.800618 
-0.661379 -0.430365 0.606526 
-0.156252 0.034791 -0.964866 
0.877846 -0.088761 0.391482 
0.437091 -0.346868 0.801009 
0.586040 0.096735 0.765788 
0.029161 -0.961111 -0.215895 
0.033501 0.695671 -0.678690 
-0.013872 0.576416 -0.783976 
-0.603180 0.759032 0.173527 
-0.748194 -0.240070 -0.608841 
-0.922081 -0.320084 0.210599 
-0.924546 -0.244907 -0.275627 
-0.002063 0.143117 0.969256 
-0.920740 0.332139 -0.159918 
0.443700 0.726468 0.459085 
-0.254795 -0.441545 -0.844139 
-0.908215 0.083479 0.387496 
-0.348473 0.747490 -0.523577 
0.195874 -0.023811 -0.954345 
0.730757 0.186104 0.599505 
0.843864 0.281303 0.369537 
0.240731 -0.896192 -0.328030 
0.529057 -0.015625 0.815933 
-0.391867 0.506910 0.745245 
-0.240914 -0.175203 -0.936591 
0.095585 0.321211 -0.911822 
-0.073434 0.823236 -0.510561 
-0.325960 0.774077 0.504651 
-0.879181 -0.442867 -0.155779 
-0.374356 0.780762 -0.457032 
0.945514 -0.176619 -0.054173 
-0.467695 -0.791759 0.378475 
0.784256 -0.564247 0.050019 
-0.883121 -0.458787 -0.077828 
0.515837 -0.266481 0.778608 
0.829437 0.488075 0.008700 
0.411538 0.860178 -0.151105 
-0.228933 -0.244137 0.927115 
0.132733 0.120718 -0.958546 
-0.137705 -0.872003 0.445839 
-0.795274 -0.398647 -0.446070 
0.960324 -0.037396 0.081775 
0.555817 0.456434 -0.647478 
0.880986 -0.357920 -0.188483 
-0.029330 0.669513 0.707872 
-0.780423 -0.372466 0.494510 
-0.352535 -0.338018 0.861492 
-0.545751 0.207988 0.797179 
0.134421 0.929690 0.229744 
-0.366876 -0.462350 0.794720 
-0.432275 0.773360 0.420567 
-0.901871 -0.026011 0.420105 
0.369885 -0.614752 -0.665130 
0.572815 -0.777785 0.136995 
0.156868 -0.931065 -0.258233 
0.675140 0.647514 0.227312 
-0.140067 0.352441 0.901764 
-0.763526 0.050929 -0.629478 
-0.907928 -0.118224 -0.386597 
-0.758563 0.506464 0.382543 
0.897453 0.200762 0.282803 
0.882999 0.338420 -0.182153 
-0.663421 -0.406340 -0.618792 
-0.509423 -0.291661 -0.794799 
0.726173 0.523327 -0.350277 
-0.365752 -0.895454 0.212303 
-0.093072 -0.852142 -0.493731 
-0.261402 -0.950165 0.035401 
0.081573 -0.926490 0.321341 
0.956483 -0.087606 0.005262 
0.801467 0.424722 -0.317929 
-0.052892 -0.431997 -0.879103 
0.060642 0.803921 -0.541708 
0.518121 -0.421981 -0.705525 
0.563017 -0.734699 -0.304511 
-0.262914 0.772204 0.537959 
0.330898 -0.019845 -0.913403 
-0.853716 0.331438 -0.371641 
-0.818206 -0.568034 -0.003599 
0.532174 0.737665 -0.314078 
-0.696395 -0.284092 -0.646240 
-0.917035 -0.020158 -0.379315 
-0.746257 -0.455415 -0.471767 
0.280564 -0.251748 -0.897671 
-0.756616 0.471612 0.431379 
-0.592876 -0.318200 0.731290 
-0.433156 -0.817883 -0.365077 
0.005047 -0.287351 -0.937133 
0.405363 0.254346 0.844971 
0.765143 -0.549782 -0.225955 
-0.178145 -0.797032 0.559561 
0.586631 -0.763748 0.169938 
0.735416 0.051079 0.628311 
0.874897 -0.142685 0.386029 
-0.522916 0.087709 0.834193 
0.430526 -0.569094 -0.662918 
0.906887 -0.324637 -0.053472 
0.895691 -0.065115 -0.346856 
0.651903 0.287198 0.657338 
0.257398 -0.894549 0.316941 
-0.506747 0.812898 0.214843 
0.481527 -0.822322 -0.230936 
0.089212 0.818186 -0.514771 
-0.775236 -0.618726 -0.112791 
-0.704139 0.311012 0.623663 
-0.811375 0.365140 0.427435 
0.579419 0.732272 0.240638 
-0.157817 0.504844 0.826070 
-0.085947 -0.733586 0.654227 
-0.037205 0.528514 0.822559 
-0.523989 0.817206 -0.142277 
-0.717428 -0.688425 0.088582 
-0.380831 0.720736 0.550098 
0.062889 0.962574 -0.101820 
0.964144 -0.013653 0.033970 
-0.459550 0.689748 -0.523016 
0.856532 0.436956 -0.044757 
-0.844958 -0.453901 0.271271 
0.174299 -0.671012 0.694902 
0.952489 0.091635 0.082460 
-0.882753 0.441957 0.070273 
-0.991507 0.008975 -0.088283 
-0.688942 0.615792 -0.337429 
0.226023 -0.942362 0.168394 
0.922555 0.186010 -0.203082 
-0.530865 0.627968 0.539899 
-0.614375 -0.514828 -0.580525 
0.028568 0.275183 -0.938216 
0.873379 0.397555 0.089738 
0.751127 0.413176 -0.436231 
-0.732615 -0.550980 0.390445 
-0.486021 0.675097 -0.519766 
0.440953 0.265948 -0.821299 
0.520236 0.589149 -0.559954 
0.295808 -0.525460 -0.770382 
-0.557851 -0.779888 -0.263763 
0.796186 -0.236580 -0.495738 
0.755457 0.576622 -0.155351 
0.581514 0.466582 -0.612383 
-0.748103 -0.567607 0.328890 
0.337124 0.268705 0.871890 
-0.382660 0.635692 -0.643910 
0.352429 0.003103 -0.904835 
0.698012 0.334671 -0.578105 
-0.672336 -0.690741 0.253365 
0.322273 0.834489 -0.365286 
0.290429 0.763594 0.521487 
-0.209175 0.923917 -0.231393 
-0.163314 0.949822 -0.160026 
-0.853614 -0.189083 -0.473818 
-0.919115 -0.068649 0.379001 
0.932850 0.224918 -0.042472 
0.117758 -0.976516 0.002060 
0.239393 -0.923227 -0.230248 
0.615915 -0.191419 -0.726570 
-0.326303 0.768832 -0.508641 
0.339956 0.777911 -0.460513 
-0.383968 -0.417705 -0.809423 
0.234025 -0.605247 0.737638 
0.594097 0.263210 -0.714237 
0.372293 0.514621 0.733010 
-0.887195 -0.106290 0.437361 
-0.230598 0.673279 -0.668974 
-0.855467 0.217976 -0.453273 
-0.531697 0.434561 0.708945 
-0.217780 0.221951 -0.931616 
0.941169 0.044884 -0.191760 
-0.197972 -0.735603 -0.628426 
0.942937 -0.186542 0.081881 
0.539349 0.713038 -0.351442 
0.313104 -0.890789 -0.265353 
0.026812 -0.705322 -0.682934 
0.460499 -0.041945 -0.852849 
0.670376 -0.693522 0.135155 
-0.604189 0.428128 0.654794 
-0.184146 0.020223 -0.960787 
0.112236 -0.953153 0.225266 
0.510866 -0.661134 0.502959 
-0.506018 0.839957 0.002028 
-0.172114 0.956103 -0.072425 
0.939086 0.168726 0.100734 
0.853817 -0.264328 -0.367129 
-0.562667 0.732654 -0.340028 
0.109838 -0.972044 -0.115564 
-0.741215 0.184520 0.631930 
-0.035516 -0.351908 0.918069 
-0.364022 -0.655455 0.648282 
0.752713 -0.186032 0.576582 
-0.636041 0.318590 -0.685011 
0.817221 -0.315488 0.410985 
0.850807 -0.434751 -0.164533 
0.527183 0.581732 0.565065 
0.746137 -0.201587 -0.585630 
0.369120 -0.087488 0.899253 
0.720001 0.636229 0.018111 
-0.802803 0.344943 -0.454947 
0.506317 0.180865 0.809852 
-0.292788 -0.841575 -0.435253 
-0.876415 0.342770 0.318190 
0.196798 -0.065987 0.955274 
-0.053461 0.234439 -0.947706 
0.463091 -0.851934 0.141560 
0.764524 -0.589268 -0.095553 
-0.988962 -0.085756 0.074498 
0.794665 0.403630 -0.359284 
-0.262078 -0.822447 -0.485792 
-0.571784 -0.455407 -0.668746 
-0.965853 -0.020700 -0.239008 
-0.010519 0.334559 -0.915124 
-0.780628 0.504761 -0.339021 
0.528294 -0.082613 0.811932 
0.400055 0.063261 0.882182 
0.245271 0.926759 -0.130056 
0.737316 -0.393140 -0.489526 
0.220835 -0.954290 0.090765 
0.820604 0.216975 0.459149 
0.736419 -0.227315 0.586983 
0.464624 0.724995 0.438121 
0.410374 0.487762 -0.728436 
-0.165229 -0.174920 0.955504 
0.630250 -0.694557 0.247123 
-0.162683 0.699807 -0.662251 
-0.311031 0.003134 0.931665 
0.728547 0.174897 -0.607333 
0.180348 -0.355071 -0.891694 
-0.622442 0.694471 0.321110 
-0.899156 -0.054323 0.424819 
-0.931824 0.271939 -0.207714 
0.292590 0.049205 -0.925341 
0.825200 -0.176009 0.473046 
0.265212 -0.936104 -0.118611 
-0.059950 -0.739079 -0.647786 
-0.730229 -0.626402 -0.267602 
0.673286 -0.685946 -0.157312 
0.157122 -0.878498 -0.412472 
0.640210 0.718778 -0.003208 
-0.330997 0.904822 0.155603 
0.676744 -0.693372 0.085282 
-0.606511 -0.046062 -0.781888 
-0.370032 -0.857282 -0.330583 
-0.727830 0.637848 0.187378 
-0.401344 0.347333 0.829977 
0.553360 -0.718352 -0.358792 
0.741775 -0.544170 -0.307209 
-0.275380 0.887135 0.312182 
0.531383 0.802663 -0.021246 
0.196968 0.863018 -0.390251 
-0.847025 0.295868 -0.421875 
0.513089 0.813074 -0.055063 
-0.889211 -0.077374 0.440386 
-0.831692 0.528310 -0.094302 
0.847894 -0.132627 -0.440793 
0.153514 0.241929 0.934003 
-0.700342 0.138240 0.689761 
0.753369 -0.555021 0.260882 
0.707720 -0.606721 -0.284824 
0.300700 0.327891 -0.861976 
-0.068262 0.835851 0.503696 
0.021718 0.740091 -0.628427 
-0.031221 0.401049 0.894244 
-0.779460 -0.593298 0.191691 
-0.632712 0.707337 0.261907 
-0.574068 0.794720 0.056236 
-0.446987 0.376843 -0.788907 
0.209131 -0.639482 -0.712771 
-0.250381 -0.386052 -0.872124 
0.702116 -0.459988 0.490846 
-0.291691 -0.889809 -0.330050 
0.528472 0.083685 -0.805355 
0.659883 -0.710205 -0.084545 
-0.115051 -0.651714 0.734353 
-0.985348 0.124775 0.047202 
-0.243064 -0.951162 -0.136843 
-0.188371 -0.913209 -0.313885 
-0.984412 0.111444 -0.050924 
-0.878601 -0.194450 0.426857 
0.911768 -0.294660 -0.137221 
-0.709688 0.677208 -0.087482 
-0.033099 -0.622217 -0.760787 
0.467844 0.348176 0.774818 
-0.220967 -0.867139 0.427197 
-0.580236 -0.129237 -0.790038 
-0.560438 -0.822866 -0.042245 
-0.625336 -0.678741 -0.370274 
-0.063686 -0.380513 -0.905489 
-0.467402 -0.163561 0.856691 
0.828359 -0.455893 0.206157 
0.805196 0.098750 0.525761 
-0.427895 -0.032071 0.893098 
-0.910900 0.381215 0.089203 
0.830988 0.423128 -0.234032 
-0.597056 0.403851 0.676693 
0.599678 -0.683262 -0.348306 
-0.814223 0.561608 0.005437 
0.051676 0.237035 0.949985 
0.414545 0.443533 -0.754968 
-0.997925 0.025225 0.006150 
-0.151583 0.309512 -0.914002 
0.329307 -0.776509 -0.491146 
0.617021 -0.633788 0.406848 
0.466773 0.013506 -0.850024 
-0.531027 -0.716503 0.436669 
-0.996129 0.004622 -0.021988 
0.103397 -0.977838 0.033257 
0.900335 -0.057688 0.340948 
0.118407 0.829363 -0.492271 
-0.684530 -0.081974 -0.709858 
-0.850830 -0.329909 -0.394883 
0.158090 0.482501 -0.827017 
-0.789050 0.592124 -0.003444 
0.353552 -0.780266 0.479207 
0.483118 0.112580 0.832230 
0.032134 0.067544 0.975943 
0.219569 -0.665495 -0.687530 
-0.565667 0.414540 -0.689292 
-0.123087 0.851770 -0.456088 
-0.169970 0.108321 -0.957016 
0.670389 -0.385700 0.585933 
-0.782775 -0.613631 -0.014847 
-0.619237 -0.130620 -0.759788 
-0.143420 -0.693943 -0.686750 
0.086534 -0.703275 -0.681686 
0.259035 -0.880915 0.348228 
-0.703500 0.641590 -0.251265 
0.039075 0.962003 -0.124876 
-0.304517 -0.737490 -0.586956 
-0.331181 -0.934536 -0.021658 
-0.272968 0.398511 -0.852800 
-0.297620 -0.939312 0.092961 
0.717440 0.627572 -0.134062 
0.791249 -0.373995 -0.408019 
-0.244777 -0.331880 -0.896900 
-0.221627 0.604411 0.738404 
-0.365115 0.871716 -0.254172 
0.602165 0.121235 -0.745466 
-0.475545 0.273565 0.821499 
0.062194 0.432694 0.874159 
0.879885 0.073373 -0.387834 
-0.265171 0.237741 -0.913221 
0.927469 -0.080628 -0.239389 
-0.728448 0.646833 -0.147764 
0.839668 -0.293281 0.384753 
0.848573 0.112882 -0.440648 
-0.347522 0.904012 -0.111969 
-0.875501 0.222666 0.411545 
-0.037756 -0.004415 -0.980166 
-0.420883 0.846414 0.258287 
-0.798023 -0.488197 0.349560 
-0.397266 0.203270 -0.876318 
-0.254008 0.620057 0.716766 
0.245698 0.163038 0.931562 
0.701280 0.462795 0.474133 
-0.352101 -0.039190 -0.918629 
-0.352634 -0.682276 0.624932 
-0.537082 0.020782 0.828367 
-0.357476 -0.686287 -0.614941 
-0.113134 0.889113 -0.386360 
-0.081438 -0.001765 -0.975543 
0.078048 -0.731436 0.657167 
-0.654908 0.713304 0.179565 
0.812656 -0.241190 -0.467954 
-0.430202 -0.713671 0.539913 
0.830093 -0.277760 -0.412661 
-0.545816 -0.326715 -0.757369 
-0.604719 -0.066357 0.781995 
-0.965437 0.074045 -0.238314 
0.183674 0.344750 -0.888927 
-0.512815 -0.845631 -0.109837 
0.856903 0.055617 -0.432148 
0.511244 0.784402 0.233734 
0.545189 -0.718299 0.374632 
0.119131 -0.856677 -0.472562 
0.548611 0.781337 0.119038 
0.786534 0.550831 -0.025822 
-0.193855 -0.654985 -0.713524 
-0.296748 -0.693314 -0.637993 
-0.121646 -0.713006 0.677157 
0.527925 0.756618 -0.276855 
-0.384103 -0.246705 -0.873952 
-0.573842 -0.273720 0.761284 
-0.327045 -0.920318 -0.166444 
-0.462317 -0.463623 -0.740531 
-0.279946 -0.674870 0.665869 
0.417936 0.609804 -0.623039 
-0.436111 -0.870704 0.197878 
0.460854 -0.389262 -0.762049 
-0.732132 0.357472 0.562911 
0.263769 0.671131 0.645585 
0.632873 0.478607 -0.547343 
-0.492728 -0.452842 0.733629 
0.492247 0.278811 0.784385 
0.497490 0.477446 0.678229 
0.692295 -0.400530 0.550243 
-0.814024 0.077609 -0.560930 
-0.911843 0.096019 -0.391498 
-0.426499 0.358570 0.811859 
-0.173600 -0.202263 0.947885 
0.592080 -0.686124 0.352275 
-0.576454 -0.790603 0.179960 
-0.715594 -0.082790 0.685147 
0.192210 -0.162123 0.948615 
0.638768 0.645848 -0.322432 
-0.140041 -0.689406 0.697798 
-0.469361 -0.485101 -0.722898 
-0.080318 -0.521542 0.832069 
0.160144 0.514422 -0.806053 
-0.440838 0.077716 0.880425 
0.804702 -0.234488 0.484986 
0.366244 0.848275 0.286228 
0.889435 -0.385052 0.010035 
-0.565433 -0.032484 0.812389 
0.694576 0.443767 0.500425 
0.698264 0.635235 -0.194391 
0.808259 0.372470 0.364096 
0.783302 -0.454130 0.344949 
-0.588339 0.713543 -0.337647 
-0.664722 -0.719892 -0.173245 
0.162481 -0.390412 0.884924 
0.933363 0.133220 0.186864 
0.827748 0.266807 -0.410149 
-0.439235 -0.332280 -0.819696 
0.755851 -0.405900 0.458730 
0.247239 -0.859770 -0.402332 
0.034217 0.969602 0.063734 
0.161530 -0.023406 -0.960132 
0.765143 -0.570136 -0.171921 
0.775302 0.560346 -0.103254 
0.885618 -0.090168 -0.365913 
-0.502230 0.711396 -0.452974 
0.771783 -0.574067 0.107174 
-0.683359 -0.139128 -0.704115 
0.155575 0.319321 0.907832 
0.159923 0.790488 0.542506 
-0.713243 -0.688667 0.126997 
0.894513 -0.288807 0.215782 
0.622494 -0.533417 -0.526709 
0.496216 0.817072 0.125264 
-0.234535 0.244934 -0.921242 
-0.101742 -0.968016 0.169402 
-0.910726 -0.389446 0.113362 
0.865413 -0.029550 0.425575 
0.839048 -0.430902 0.218341 
-0.976044 -0.188168 -0.090468 
0.705077 0.066357 -0.658687 
0.631637 -0.683145 0.274826 
0.526075 -0.476974 0.669547 
-0.387620 0.681312 0.594179 
-0.526320 -0.842768 -0.082085 
-0.768884 -0.633182 -0.082591 
0.382244 0.079526 -0.890878 
-0.509576 0.791682 -0.267377 
-0.251112 0.594678 0.739031 
-0.028643 0.916977 -0.324824 
-0.971024 -0.052459 0.217402 
-0.058744 0.673585 0.703377 
0.846826 -0.098735 -0.456143 
0.505641 -0.370634 0.750142 
-0.634533 -0.594002 -0.481345 
-0.477703 0.854361 -0.008228 
0.805397 0.516457 -0.097394 
0.307698 0.113008 -0.916159 
0.248441 -0.623019 -0.712211 
-0.554960 -0.639640 -0.518921 
-0.575778 -0.195119 0.784230 
-0.964600 0.229954 -0.079512 
-0.519948 0.138061 0.832254 
-0.696686 -0.382872 0.597180 
0.812881 0.512174 0.072546 
0.212686 -0.357907 -0.880550 
0.633645 -0.279237 -0.675144 
0.839036 0.426132 0.191751 
0.929473 -0.097818 0.235394 
-0.812611 0.036377 0.567692 
-0.578131 -0.796182 0.147263 
-0.871284 0.470360 0.013090 
-0.623016 0.659867 -0.388169 
0.170738 0.595975 0.753111 
-0.039062 -0.184470 0.963741 
0.394913 -0.654244 0.612021 
0.944799 -0.011962 -0.178251 
0.020115 -0.349046 0.917875 
-0.180129 0.574728 -0.768199 
-0.605360 0.032652 0.785850 
-0.356993 -0.744904 0.549745 
0.183544 0.883890 -0.346795 
-0.123347 0.209579 0.954005 
0.838078 0.162271 0.448675 
0.264691 -0.816001 -0.474417 
0.662765 0.546819 -0.430206 
-0.734525 -0.633322 -0.235781 
-0.657885 0.628724 -0.378848 
-0.145576 -0.399045 -0.886483 
0.931549 0.107484 -0.215412 
-0.381130 -0.917492 0.006752 
0.256357 0.424494 -0.835966 
0.321829 0.045328 -0.915526 
-0.245739 0.503790 -0.803244 
0.657145 0.113733 0.703935 
-0.486793 -0.857804 -0.119438 
0.052083 -0.867741 0.462393 
-0.831863 -0.216175 -0.496778 
-0.742216 -0.658755 0.066678 
0.218574 0.892656 0.300242 
-0.784975 0.578646 -0.160280 
-0.501577 0.782889 -0.309019 
0.568685 -0.228809 -0.752760 
-0.288161 -0.256382 0.910937 
0.324910 0.522470 -0.744596 
-0.330059 0.866581 0.315696 
-0.854085 -0.454261 0.242961 
0.228455 0.334714 -0.880475 
-0.526679 -0.781394 0.317856 
-0.529626 0.488111 0.673551 
-0.656478 -0.291983 0.689694 
0.184148 -0.317704 0.907232 
0.865540 -0.204207 -0.372302 
-0.633345 -0.737372 -0.220572 
0.152964 0.407825 -0.870227 
0.671720 -0.517633 0.476938 
0.395306 0.547901 0.695003 
-0.402412 0.411248 0.799549 
0.010238 0.885328 0.397231 
-0.814581 0.004725 -0.563899 
0.484095 0.757686 0.354539 
-0.501306 0.447483 0.721686 
0.294185 0.893774 0.232017 
-0.793481 -0.423765 -0.426195 
0.551031 -0.663118 0.458981 
0.000539 0.818860 0.527499 
-0.125283 -0.604755 0.771016 
-0.326599 0.829755 0.404954 
-0.000320 0.959825 0.140904 
0.165287 -0.342127 0.902817 
-0.882762 -0.193477 -0.421502 
-0.823528 0.511962 -0.173275 
-0.352360 0.777601 0.485372 
-0.489449 0.410688 0.751888 
0.443696 -0.620070 0.612552 
-0.824168 0.352324 -0.411457 
-0.866478 -0.457831 -0.185647 
0.792823 -0.080189 0.548963 
-0.936005 -0.331179 0.095995 
-0.931312 0.337036 0.058771 
0.465310 -0.615867 -0.596409 
-0.022557 -0.050751 0.980686 
0.153733 0.520296 0.807346 
-0.535365 -0.239315 -0.794067 
-0.943191 0.190835 0.238517 
0.604536 0.175019 0.737853 
-0.746576 -0.110148 0.644616 
0.526798 0.553542 0.594725 
0.913574 0.214967 -0.206497 
0.778076 0.058692 -0.562531 
0.840186 0.144716 -0.449203 
0.950828 -0.127969 -0.115841 
0.339024 -0.340245 0.850317 
0.617875 0.503009 -0.543508 
0.889266 0.365695 0.078633 
-0.472394 -0.401406 -0.773471 
-0.276861 0.487936 0.803807 
0.529497 -0.688198 0.444311 
0.693194 -0.671816 0.130222 
0.111108 -0.936237 0.288405 
-0.712416 -0.157064 -0.667689 
0.496811 -0.296587 -0.779820 
0.475037 0.541925 0.643535 
0.817274 -0.401623 0.334970 
-0.663195 -0.049715 -0.733082 
-0.699058 -0.649002 -0.287891 
-0.875559 0.446351 0.098509 
0.103400 -0.065811 -0.971332 
0.451336 -0.011289 -0.858569 
0.815369 -0.389678 -0.343401 
0.832334 -0.059396 0.486869 
-0.163476 0.434419 -0.859470 
-0.519298 0.687496 0.478208 
0.109693 0.933995 -0.219254 
0.166065 -0.959763 0.158324 
0.878999 -0.366838 0.187238 
-0.854046 0.366034 -0.337150 
0.181329 0.572925 0.767488 
0.524568 -0.726195 -0.387719 
0.090568 0.424204 0.877124 
0.279377 0.121887 -0.924910 
-0.085158 0.124662 0.969450 
0.510131 0.775001 0.264558 
-0.253792 0.404542 0.858131 
-0.596384 -0.155875 -0.773579 
-0.512798 -0.421819 -0.735865 
-0.606335 0.481174 0.613456 
-0.088383 -0.835472 -0.521521 
0.865429 -0.435144 0.019602 
-0.742476 0.613947 0.210366 
0.223051 -0.168623 -0.935744 
-0.285237 -0.228183 0.917859 
0.038496 0.915508 0.322261 
-0.692860 -0.675799 0.239831 
-0.307877 -0.908630 -0.242781 
0.070102 -0.701404 0.686444 
0.307182 -0.121839 0.919822 
0.610757 0.421785 0.618857 
-0.656329 -0.160236 -0.726156 
-0.937974 -0.186152 0.275649 
-0.654615 -0.410501 0.628127 
0.145379 0.947298 -0.140456 
-0.912197 0.243958 -0.312667 
0.249267 0.774971 -0.521531 
-0.836402 -0.210734 0.498909 
0.691997 -0.685094 0.019541 
0.286467 -0.797612 -0.488131 
-0.071165 -0.301510 0.933330 
-0.037115 0.165559 0.965317 
0.132154 -0.779086 -0.581471 
0.520849 0.235554 -0.782459 
-0.547355 0.363360 -0.733371 
0.040875 -0.612279 -0.766263 
0.222126 0.531974 0.782323 
0.241430 -0.498471 -0.807428 
0.325653 -0.783849 0.489335 
0.450569 0.580157 0.631362 
-0.170197 -0.865465 0.446891 
0.416916 0.722272 -0.485573 
0.256516 0.528050 0.772859 
-0.817071 0.491604 0.272639 
0.087133 0.701010 -0.666606 
-0.976062 -0.201892 0.060445 
-0.766733 0.211618 0.588601 
0.262763 0.768750 0.530621 
0.710509 -0.066259 0.655758 
-0.871374 -0.262961 0.401897 
-0.231574 0.463586 -0.829933 
-0.835568 -0.390158 -0.375408 
-0.269432 0.164749 -0.929914 
-0.813053 0.543370 0.147617 
0.500363 -0.626662 -0.550683 
0.823736 0.005426 -0.498879 
0.676432 -0.459678 -0.519652 
0.472762 -0.635598 0.574129 
0.444794 -0.024613 0.866111 
0.532710 -0.804067 0.158428 
-0.004583 0.906878 -0.350562 
0.296527 -0.930449 0.083520 
-0.635647 0.088681 -0.752938 
-0.008502 0.507459 -0.829084 
0.958433 0.046877 -0.044512 
-0.526819 0.052323 0.833277 
0.823526 0.398567 0.305291 
0.047085 0.892857 -0.382981 
0.876809 0.012052 0.404415 
-0.084207 -0.139999 -0.969078 
-0.437345 0.696322 0.536266 
-0.527613 -0.546108 -0.633538 
-0.461258 -0.578074 0.662021 
-0.621823 0.753487 -0.116756 
0.622964 0.727438 0.059987 
-0.112750 -0.458324 0.865788 
0.162984 -0.850044 0.473446 
0.054926 -0.910004 -0.365896 
0.254161 -0.157533 -0.929744 
-0.084360 -0.875740 -0.446983 
-0.775014 0.443639 -0.412093 
0.759152 -0.568562 -0.200773 
-0.818600 -0.153979 -0.537477 
-0.163939 -0.850238 0.476278 
-0.941884 0.300882 -0.049558 
-0.421289 -0.860337 -0.256949 
0.549268 0.640339 0.473572 
-0.800201 -0.460389 0.382862 
-0.340864 0.564800 0.727990 
0.796051 -0.492050 0.267284 
-0.500062 0.280448 0.807815 
0.272518 0.876125 0.300238 
-0.736911 -0.658736 0.132704 
0.222045 0.834099 -0.440493 
0.222045 0.607310 -0.723401 
-0.052294 0.973984 -0.000294 
-0.981594 -0.188608 -0.022050 
0.860568 -0.361763 -0.251854 
0.088389 0.280793 -0.927787 
-0.734002 -0.229358 0.627406 
0.566110 0.622879 -0.476317 
0.859922 -0.107334 -0.423435 
-0.388038 0.056401 -0.902874 
0.934735 -0.146743 -0.183890 
0.664659 -0.654740 0.268214 
-0.026849 -0.507023 0.844062 
0.027379 0.806349 0.542429 
0.952163 0.096599 -0.086926 
0.654331 0.617470 0.346642 
0.282264 0.894010 -0.239375 
-0.423681 -0.140862 -0.880298 
0.644854 -0.128921 -0.716478 
0.860521 0.389848 0.180204 
0.062825 -0.357210 -0.910971 
0.531383 -0.508121 -0.640355 
-0.885487 -0.462721 -0.000332 
0.632777 -0.062615 0.734027 
-0.530264 -0.656308 -0.525456 
-0.139730 -0.826593 0.524406 
-0.693883 0.590488 0.379658 
-0.267233 -0.511997 -0.798417 
0.412093 0.522950 0.701999 
-0.638944 -0.515156 -0.556047 
0.771229 -0.450639 0.373556 
-0.199685 0.873678 0.388700 
-0.952849 -0.130068 0.247510 
0.334557 0.907513 -0.019758 
0.342833 -0.286166 0.871364 
-0.072272 -0.937462 0.291552 
-0.884386 -0.431972 0.164821 
-0.247609 0.784372 -0.529255 
-0.142052 0.516884 -0.816194 
-0.317046 0.484650 -0.790051 
-0.353505 0.809725 -0.422413 
-0.520846 -0.735514 0.417584 
0.600709 0.608150 0.450092 
-0.747800 0.640782 0.089117 
0.442203 0.654356 -0.559616 
0.402269 0.639184 -0.603497 
0.716709 0.033207 -0.646453 
-0.452144 0.618797 0.616290 
-0.033360 0.889036 -0.399072 
0.526011 -0.607023 -0.547783 
0.245803 0.889945 0.287645 
-0.266701 0.805654 0.483854 
0.849398 -0.307516 -0.352610 
-0.098087 0.575786 0.784957 
0.098520 0.662681 -0.705872 
0.773401 0.456846 -0.336076 
0.292657 -0.710191 -0.608044 
0.327743 0.897546 -0.151068 
-0.634391 0.748253 0.088388 
0.348185 0.541610 0.724015 
0.000759 -0.033083 -0.978944 
0.104236 -0.979792 -0.032905 
-0.901698 0.111628 0.399435 
0.297424 0.400474 0.834366 
0.427622 -0.030298 -0.871969 
0.412516 -0.636221 -0.617200 
0.731997 -0.202078 0.600014 
-0.408923 0.276275 -0.852679 
0.871615 -0.336642 0.250995 
-0.090249 0.741416 0.626661 
-0.281695 0.258598 -0.900160 
-0.849650 -0.522847 0.060052 
-0.323270 -0.350602 -0.863176 
-0.583842 -0.011651 -0.798320 
0.234540 0.914447 0.221105 
0.408821 -0.741999 0.493426 
0.100239 -0.891848 -0.398491 
-0.900433 -0.416649 -0.107975 
0.000419 0.935927 -0.265331 
0.901654 0.238731 -0.227667 
0.571637 -0.735114 0.285862 
-0.079846 0.610639 -0.755952 
0.209732 0.865314 0.370382 
0.572642 -0.383968 -0.685504 
-0.082431 0.902074 -0.356388 
0.411380 0.035111 0.879844 
-0.245693 -0.881608 -0.376492 
0.113036 0.949185 0.160168 
-0.346986 -0.333430 -0.861948 
-0.268638 0.520886 0.787348 
-0.091997 0.043632 0.975874 
0.568181 -0.792591 0.027811 
-0.847362 0.511444 0.001239 
-0.558648 0.492858 -0.642750 
0.893595 0.325883 -0.143757 
0.297464 -0.447952 -0.813518 
-0.511595 -0.502725 0.686023 
0.379452 -0.256396 -0.860134 
0.666483 0.139168 0.688200 
-0.387661 -0.120352 -0.899911 
0.521713 0.311090 0.749535 
-0.196003 0.627991 0.724809 
-0.955112 0.273944 0.022492 
-0.098774 -0.239761 -0.945184 
0.691451 -0.520263 -0.434646 
-0.830596 0.492231 0.212695 
0.275490 -0.500837 -0.793438 
-0.007763 0.928689 -0.291860 
-0.754368 -0.498290 0.420845 
-0.774924 -0.024414 -0.618039 
-0.184610 0.171221 0.950856 
0.738721 -0.300531 0.558346 
-0.313652 0.876033 -0.300377 
-0.402489 0.744222 -0.491295 
0.234452 -0.929023 0.210915 
-0.357666 0.822837 -0.394956 
0.629673 0.159670 -0.714187 
-0.593866 -0.166819 0.775920 
-0.989502 0.005695 -0.117582 
0.157222 -0.893623 -0.382232 
0.741692 -0.585256 -0.223164 
0.087044 -0.730880 -0.650599 
-0.330006 -0.696026 -0.620074 
0.396954 0.442669 0.767068 
0.934754 0.084105 0.223653 
-0.296329 0.207193 0.915595 
-0.192023 -0.894090 0.387130 
0.940634 -0.175404 -0.132378 
-0.757377 -0.166288 -0.614746 
-0.861589 -0.397269 0.297506 
0.108404 0.384788 0.892615 
0.254421 -0.066076 -0.939075 
-0.354454 0.826851 0.389460 
0.245554 0.804085 0.482671 
0.900658 -0.324628 -0.136077 
0.620356 0.281835 0.684947 
0.732090 0.509843 0.358051 
-0.123840 -0.885669 -0.415439 
-0.168404 -0.973073 -0.049229 
-0.826973 -0.550536 0.071887 
0.571933 -0.111419 0.776112 
0.377281 -0.835678 0.347945 
-0.994138 -0.044105 -0.011182 
0.622153 -0.228415 0.713315 
-0.922225 0.315134 -0.185527 
0.814567 -0.461690 -0.240243 
-0.774894 0.600687 0.127571 
0.918601 -0.289085 -0.032202 
-0.784074 0.467333 -0.375619 
0.168764 -0.696638 0.672927 
-0.114450 0.398277 0.887032 
0.318248 0.257770 -0.882841 
0.581639 -0.781175 -0.069137 
-0.732056 -0.535043 -0.410100 
-0.476638 -0.700394 0.520630 
0.044160 0.905394 -0.351359 
-0.055107 -0.114467 -0.971334 
0.815409 0.492034 0.131137 
-0.743499 -0.356552 -0.554513 
0.548727 0.578837 -0.543659 
-0.404569 -0.715861 0.556355 
-0.192346 -0.278232 -0.922094 
-0.371762 -0.922194 0.048978 
0.209446 0.209679 -0.926844 
0.259431 -0.351490 -0.868934 
-0.658385 -0.539636 0.515498 
-0.699226 -0.708243 0.070337 
-0.241276 0.874504 -0.355427 
-0.534603 -0.516779 -0.653504 
0.469460 -0.146153 0.843525 
0.263012 0.753272 0.556301 
-0.152879 -0.921921 0.312760 
-0.253591 0.899480 -0.279153 
-0.495010 -0.661933 -0.552565 
-0.040635 -0.619349 0.765900 
-0.102603 -0.309800 0.929289 
0.766916 0.539699 -0.219446 
-0.327508 -0.926194 -0.138333 
-0.779118 -0.052661 -0.613845 
-0.592534 -0.469449 0.641038 
0.212635 -0.839159 0.469753 
-0.296960 -0.016077 -0.940323 
0.727509 0.566397 0.278493 
0.200103 0.943906 -0.085839 
0.289184 -0.688734 -0.631526 
-0.656801 -0.358712 0.656451 
-0.376421 0.874832 0.216835 
-0.864238 0.426305 -0.226357 
-0.990258 -0.055211 -0.113164 
0.729696 -0.453200 -0.448842 
0.489809 0.437508 0.713178 
0.154232 0.016302 -0.960069 
-0.490428 -0.344979 -0.785920 
-0.503288 0.238335 0.817245 
-0.565234 -0.798505 -0.174862 
-0.101656 0.212562 -0.951097 
0.267441 0.340810 -0.866611 
0.804081 0.486861 -0.194576 
-0.444149 0.718233 0.499723 
-0.916737 -0.319693 -0.218657 
0.022165 -0.965803 0.204741 
-0.462393 0.809218 0.310895 
-0.984124 0.014285 0.150709 
0.262577 -0.685993 -0.646736 
0.230329 -0.685178 -0.661778 
0.810153 0.486449 -0.166403 
-0.033432 -0.893639 0.421455 
0.732232 -0.381936 0.509962 
0.451084 -0.507186 -0.694671 
-0.394461 0.376770 0.820516 
0.381091 0.788789 -0.408782 
-0.537290 -0.214760 0.808819 
-0.345650 -0.719182 0.586067 
-0.322890 -0.227045 0.905110 
-0.595885 -0.279415 -0.737928 
0.478610 -0.684267 0.503374 
-0.061770 0.341775 0.915754 
-0.525841 -0.795840 -0.281672 
0.078435 -0.473871 0.856696 
0.662101 0.038682 -0.709331 
0.528228 0.381427 0.715657 
0.113342 0.350269 -0.898476 
-0.534491 0.693304 0.450974 
-0.694322 -0.643412 0.313381 
-0.083853 -0.787541 0.588935 
-0.774695 0.577899 0.211713 
0.273928 -0.664554 -0.663052 
0.918374 0.028920 -0.278399 
0.938074 0.114504 -0.183776 
-0.700832 -0.695175 0.152861 
0.004175 -0.186111 0.963580 
-0.008437 -0.970386 0.194027 
0.629792 0.678179 -0.264916 
0.128691 -0.885460 -0.407592 
-0.138189 -0.964031 0.168702 
0.085831 -0.153608 -0.961707 
-0.393473 -0.788391 0.455892 
0.598906 0.606324 -0.452683 
0.269310 -0.111170 -0.929968 
-0.089203 0.008331 0.977981 
0.176755 -0.123207 0.957453 
-0.716740 -0.691185 0.048045 
0.570607 -0.259597 -0.742415 
-0.807776 -0.564836 -0.162822 
0.496205 -0.748442 0.382666 
0.046145 -0.596443 0.781173 
-0.558794 0.599371 -0.546060 
0.391582 -0.745001 -0.494105 
0.508823 -0.177114 -0.805604 
0.101409 0.225228 -0.941882 
-0.991712 0.076293 0.063230 
-0.753857 -0.221184 0.607915 
-0.207408 -0.033314 -0.956278 
0.243404 -0.914796 -0.261934 
-0.851966 0.483127 -0.131298 
-0.131462 -0.482924 -0.846091 
0.278651 0.094365 0.929562 
-0.121664 -0.524878 -0.824831 
-0.945862 0.208108 -0.217996 
0.078001 0.334629 0.913710 
0.264372 -0.927832 0.180852 
0.658957 0.308083 0.638242 
0.435465 -0.204862 0.849934 
0.579396 -0.642314 0.456060 
-0.134517 0.816992 -0.516196 
-0.966218 0.128238 0.202734 
-0.564261 -0.304358 -0.751862 
0.659671 0.690241 -0.113546 
0.805976 -0.187603 0.498011 
-0.280663 -0.855435 0.416196 
0.906353 0.178187 0.265722 
-0.645816 0.686093 0.296156 
-0.585997 -0.789065 -0.156362 
0.738887 0.373405 0.497819 
-0.713906 -0.196328 -0.658513 
-0.804071 0.179220 -0.550724 
-0.574476 0.765348 0.215482 
0.803032 0.405398 0.338993 
0.341945 -0.489154 0.776001 
-0.485718 -0.616324 -0.607737 
-0.814018 -0.569597 0.046160 
0.862922 0.195863 -0.379472 
0.128239 -0.169541 0.956126 
-0.611721 -0.361372 -0.691645 
-0.559133 -0.238300 -0.777644 
-0.663271 -0.711946 -0.210779 
0.599403 -0.102590 -0.756646 
0.293137 0.897674 -0.207197 
0.536397 -0.186170 -0.785064 
-0.065112 0.579807 0.786301 
-0.352129 0.343093 0.854655 
0.660311 -0.716065 0.028923 
0.889476 0.254059 0.270007 
0.783913 0.272453 0.494263 
-0.349759 -0.926057 -0.045972 
-0.026835 0.792074 0.565642 
-0.013911 0.968555 -0.099561 
-0.595029 -0.753847 0.280113 
0.585947 -0.616474 -0.472271 
-0.150641 0.654325 -0.707027 
-0.362658 -0.921521 0.082790 
0.476931 -0.422828 0.736759 
-0.726039 0.668386 0.005113 
