0.498909 0.413926 0.722757 
-0.284877 0.695955 0.630422 
0.456023 0.242792 0.823222 
-0.332118 -0.534968 -0.760959 
0.679352 0.464338 0.504042 
-0.055685 -0.901554 -0.400262 
-0.570800 -0.079209 0.806729 
0.695053 -0.568181 0.372267 
-0.307251 0.451092 0.814549 
-0.288738 0.851298 0.385305 
-0.455355 0.696979 0.520016 
0.084463 0.903387 0.352553 
0.464747 -0.857914 -0.039792 
0.338185 -0.154560 0.902264 
0.470396 -0.785233 -0.341250 
-0.904710 0.388451 0.103763 
-0.714375 0.656892 -0.177501 
-0.017068 -0.418832 0.891258 
0.368859 -0.909245 0.018457 
-0.711935 0.133279 0.680149 
-0.476954 -0.777407 -0.393088 
-0.186094 -0.533104 -0.803969 
-0.867417 0.431247 0.192923 
0.148214 0.752367 0.596416 
-0.281692 -0.945900 0.036012 
0.348682 0.760045 -0.483199 
-0.752648 -0.466020 0.457939 
-0.419510 0.523161 -0.719372 
0.464189 0.260930 0.810666 
-0.171404 -0.698036 0.680849 
0.070147 0.970009 0.005420 
-0.266545 0.900359 0.282440 
0.784923 0.544589 0.118928 
0.328254 -0.192393 0.898406 
0.301331 -0.867262 0.343272 
-0.956709 0.025387 -0.271765 
-0.831902 0.493193 -0.187127 
-0.416906 -0.466004 0.770004 
-0.764240 0.621745 0.045101 
0.087440 0.807940 -0.530280 
-0.596585 -0.797909 -0.038090 
-0.228591 0.802165 0.507670 
0.182802 -0.930534 0.257058 
-0.921522 0.328683 -0.165517 
0.708807 0.243656 0.607091 
0.535963 0.622669 0.509308 
-0.177611 -0.681022 0.694700 
0.952585 0.109440 0.062463 
-0.720705 -0.039199 0.680576 
0.037005 0.702913 -0.669973 
-0.977927 -0.140867 0.133970 
0.085996 -0.328868 0.920755 
0.632163 0.665785 -0.290139 
0.210961 0.765726 0.559931 
-0.901751 0.178103 -0.371537 
0.705487 -0.211171 0.630720 
0.849978 0.059451 0.453253 
0.743695 0.607535 -0.075921 
0.046451 0.843621 0.479085 
0.565781 0.775789 -0.092053 
-0.541857 -0.302553 -0.768269 
-0.525476 -0.705878 0.462609 
-0.886032 -0.361092 0.268905 
-0.868234 -0.063584 -0.479019 
-0.819785 0.510964 -0.191032 
-0.769611 -0.599742 -0.203564 
0.365430 0.630989 0.638691 
-0.277515 -0.319449 -0.891684 
-0.671893 0.714788 0.089728 
0.820278 -0.160541 -0.482531 
-0.681191 -0.061670 -0.715309 
0.116958 0.954418 0.120320 
-0.206727 -0.956374 0.147509 
-0.256215 -0.687951 0.663158 
-0.808825 0.559632 0.107092 
-0.620581 0.170678 -0.746270 
-0.895704 0.285343 -0.318883 
-0.668223 -0.737345 0.060378 
-0.955047 0.266713 0.054547 
0.434685 0.423206 -0.754088 
0.277833 0.683843 0.626233 
-0.325444 0.883164 0.273079 
0.895994 0.327100 0.129269 
0.368869 -0.844820 0.334842 
-0.502133 -0.486084 0.706289 
0.115766 0.738613 -0.617273 
0.729597 -0.635021 0.040231 
-0.554181 -0.451113 0.691930 
0.066819 0.020941 0.976007 
0.372191 0.360630 -0.821264 
-0.832803 0.135780 0.516892 
-0.928095 -0.236364 -0.269329 
-0.192858 -0.467436 -0.846921 
0.958075 -0.061906 -0.038272 
-0.890619 0.366915 -0.235196 
-0.776236 0.411548 -0.439807 
0.961660 -0.044309 0.054674 
0.096320 -0.977530 0.078546 
0.366178 -0.774639 0.480290 
0.704829 0.197236 0.628430 
0.624145 -0.467601 -0.578585 
0.540832 0.034770 0.804204 
-0.120048 -0.185983 -0.957788 
0.303576 0.077013 0.923495 
-0.595195 -0.576842 -0.540807 
0.933502 0.046539 -0.220148 
0.383136 0.629028 -0.627647 
0.893298 0.215755 -0.283156 
0.365163 -0.515796 0.746769 
0.048971 -0.723372 -0.661062 
-0.029737 0.833162 -0.497386 
0.738093 -0.445666 -0.443809 
-0.499754 -0.465855 -0.715265 
0.238805 0.906121 -0.250142 
0.652150 0.707891 -0.035997 
-0.898046 0.186380 0.385176 
0.847554 -0.344856 0.317247 
0.392656 -0.423055 -0.784246 
0.590811 -0.692932 0.341164 
-0.157667 0.054835 -0.964731 
-0.339146 -0.834384 0.415380 
0.258997 0.620226 -0.698040 
-0.318914 -0.134066 -0.919108 
-0.804715 -0.331721 0.484764 
-0.752390 0.403090 -0.489735 
-0.846997 -0.336961 -0.396757 
0.458049 -0.097610 0.854296 
-0.687476 -0.115476 -0.703192 
0.018409 0.690494 0.689228 
0.164009 0.720151 -0.628816 
0.105099 0.902930 0.343822 
0.134085 0.059649 0.967808 
-0.355903 -0.565511 -0.727002 
-0.982564 0.143330 0.079428 
-0.099879 -0.514982 -0.832799 
0.832540 0.477326 0.055525 
-0.547621 -0.825684 0.121329 
0.251928 0.825003 0.442757 
-0.666951 -0.623749 -0.395842 
0.369766 -0.704218 0.572745 
-0.038295 0.912269 0.332889 
0.908468 0.286549 -0.125585 
0.213049 0.938610 0.120015 
0.465373 0.338366 -0.777233 
0.606456 -0.147160 0.742283 
-0.921715 0.241818 0.276899 
-0.643107 0.535065 0.522326 
-0.985335 -0.109940 0.103339 
-0.014063 -0.071495 0.978856 
-0.011724 0.665272 0.712258 
-0.475863 0.570701 0.647728 
0.631937 0.450766 -0.570574 
-0.107626 -0.981399 0.059844 
0.690614 0.421227 -0.527065 
-0.162571 -0.870210 -0.436971 
-0.394850 0.886882 -0.090156 
-0.278790 0.568832 0.751186 
-0.642345 0.705323 -0.246886 
-0.548153 -0.179846 -0.803229 
-0.593899 -0.196208 0.769350 
0.346849 -0.208391 -0.889740 
0.906855 -0.049543 -0.317828 
0.063368 0.969186 -0.014258 
0.661451 -0.496104 -0.507001 
-0.903727 0.414159 0.023293 
-0.851425 0.476303 -0.150898 
0.547270 0.790315 -0.052765 
-0.562800 -0.638629 0.513633 
-0.696035 0.196739 -0.674553 
-0.243042 0.687282 -0.651497 
-0.920405 -0.324245 -0.198908 
0.850227 0.433379 0.115769 
0.167574 0.464244 0.839240 
0.288792 -0.782199 -0.510981 
0.564509 -0.258380 0.747619 
0.441030 -0.392605 -0.772350 
0.384535 -0.724609 -0.531197 
0.830206 -0.028136 -0.488721 
0.210807 -0.108934 -0.946518 
-0.291303 -0.913028 0.256246 
-0.930101 0.340394 -0.019535 
-0.439344 0.761488 -0.435778 
-0.504661 -0.142783 -0.837557 
-0.105708 0.018815 0.974962 
0.373959 0.772842 0.450262 
0.680116 -0.680200 -0.152908 
-0.755903 0.326177 -0.549251 
-0.597207 0.298175 -0.724604 
0.024160 -0.975242 0.159263 
-0.234858 -0.614872 -0.735292 
0.564673 0.693407 -0.352046 
0.511991 0.293335 -0.767111 
0.553872 0.782704 -0.111531 
0.570256 0.641728 -0.446929 
0.604244 0.185967 0.735150 
-0.374224 0.894833 -0.096753 
-0.528864 0.203423 -0.802371 
-0.536997 -0.835621 0.038291 
-0.865702 0.451805 -0.155382 
-0.282894 0.853490 -0.376337 
0.653584 -0.489631 0.530817 
0.213078 0.548930 -0.771592 
-0.725859 0.313763 -0.593368 
-0.989804 -0.098052 -0.037387 
-0.823570 -0.422432 -0.372735 
-0.325209 0.875655 0.295639 
0.281961 0.637597 -0.673006 
-0.371977 -0.550536 -0.730209 
-0.511079 0.836011 -0.073811 
0.185283 0.863097 0.398949 
0.610036 0.546638 0.508752 
-0.777879 0.508888 -0.338488 
-0.583411 0.568015 -0.553320 
-0.964913 0.043746 -0.242078 
0.590234 0.003136 -0.764537 
0.185885 0.657713 -0.688685 
-0.757829 0.523923 -0.363732 
0.349841 0.428776 -0.795690 
0.382904 0.552590 0.699529 
0.930388 -0.182462 0.190761 
0.881360 0.250497 -0.296250 
0.790005 -0.485689 -0.269250 
0.825985 -0.314742 -0.390626 
-0.409698 -0.776358 0.464192 
-0.385379 -0.788968 0.461943 
0.619241 0.714729 0.173144 
-0.774005 -0.243153 -0.578981 
0.514567 -0.396911 0.728506 
-0.576628 -0.754781 -0.295928 
0.845234 0.449944 0.090545 
0.262452 -0.729244 -0.600435 
0.761467 -0.497521 -0.329809 
0.502257 0.130419 -0.816553 
-0.505236 -0.698571 0.499071 
0.205126 0.506135 0.803830 
-0.646242 -0.051907 -0.748222 
-0.596473 0.699805 0.350095 
-0.890026 0.090016 0.433001 
-0.855109 -0.208810 0.467652 
0.003722 0.168595 0.965103 
0.760905 -0.259126 -0.539654 
0.141242 -0.222402 -0.940292 
0.237087 -0.808639 -0.503958 
-0.395306 -0.106877 0.899904 
0.247196 0.724319 0.598686 
-0.616606 0.753927 0.160106 
0.468158 -0.201130 0.831511 
-0.143352 0.895954 0.362395 
-0.258522 0.536162 -0.775826 
0.365150 -0.793963 0.447537 
-0.909850 -0.396279 -0.107978 
0.683176 0.664444 -0.129806 
0.035500 -0.818085 0.551988 
-0.955121 -0.022087 0.278640 
-0.491445 0.059935 -0.855264 
-0.251685 -0.849194 -0.451157 
-0.609185 -0.711645 0.337149 
0.394654 0.543346 -0.697116 
0.661771 0.242267 -0.663547 
-0.428962 -0.640085 -0.619541 
0.123569 0.454156 -0.851414 
-0.525452 0.004321 0.836053 
0.899185 0.260809 0.237057 
0.477268 -0.410560 -0.739225 
-0.480082 0.762567 0.392120 
0.898867 0.136498 0.314335 
-0.835164 -0.449132 0.307606 
0.750843 -0.150351 -0.587764 
-0.518428 -0.842903 0.100183 
-0.642809 -0.169859 0.736323 
-0.556138 -0.242975 -0.778187 
0.688707 0.676007 0.000382 
0.673164 0.692139 0.002008 
-0.590527 0.739022 0.258652 
-0.923533 -0.229622 -0.289415 
-0.528687 0.243023 -0.793972 
-0.809224 0.473180 -0.322616 
-0.040368 0.820320 0.528111 
0.705807 0.558561 -0.344542 
0.425617 -0.719044 0.508610 
-0.169542 0.601478 -0.748624 
-0.235271 0.665888 0.679021 
-0.522234 0.733620 0.399249 
-0.894761 -0.369268 0.232253 
-0.855446 -0.397812 0.315496 
0.610165 0.737450 -0.119370 
-0.713354 -0.365554 0.589278 
0.754101 0.245595 0.548620 
-0.017748 -0.680180 0.714950 
-0.892361 0.076939 -0.432612 
-0.674813 0.550707 -0.465227 
-0.220478 0.859894 0.412748 
-0.952158 0.166971 -0.224290 
0.289963 -0.938641 0.009738 
0.480222 0.807751 0.212724 
-0.219504 -0.630308 0.728515 
0.279385 0.516040 -0.770142 
0.917580 -0.291405 0.079911 
0.737608 -0.584733 0.235291 
-0.232699 -0.030425 -0.952681 
0.759731 -0.589933 0.102524 
-0.546862 -0.578125 -0.587377 
0.281052 -0.901753 -0.264120 
-0.182119 0.954379 0.067714 
-0.577687 0.788884 -0.096375 
0.848133 0.336592 -0.300605 
0.492657 0.529457 0.640117 
-0.546274 0.681682 -0.445857 
-0.345777 -0.112740 0.917052 
0.944481 -0.184053 -0.011097 
-0.578525 0.213137 0.773012 
-0.008560 -0.843774 -0.508123 
-0.859810 -0.186278 -0.464972 
-0.730345 0.622892 0.223643 
-0.835331 0.002378 -0.533303 
-0.165204 0.812107 0.513554 
-0.381656 0.471021 -0.773133 
-0.459240 0.291426 -0.820337 
0.835670 -0.432378 0.230465 
0.715159 0.512862 0.392661 
-0.214202 0.859426 -0.411209 
-0.987764 0.016297 0.121602 
-0.738954 -0.613114 0.258379 
-0.802202 -0.446142 0.397865 
-0.738331 -0.653453 0.147994 
0.005971 -0.227814 -0.952661 
0.117158 0.926564 0.251788 
0.042379 -0.984353 -0.063342 
0.481539 -0.837046 0.168471 
0.008699 0.687157 -0.690929 
0.782579 -0.564946 -0.111395 
0.331277 0.831846 0.365471 
0.066388 -0.405307 -0.893944 
-0.652455 0.343327 -0.657075 
-0.172338 -0.499630 -0.829944 
-0.623439 -0.641709 0.432334 
0.278330 0.262070 -0.895018 
0.256263 0.856676 0.355637 
-0.665098 -0.576234 -0.466564 
0.167199 -0.664856 0.702001 
-0.856218 0.220743 -0.450827 
-0.659656 -0.464613 -0.580874 
-0.342034 -0.919527 0.144115 
-0.483790 0.842514 -0.149944 
0.548090 -0.395875 -0.701649 
0.168020 -0.680152 0.687994 
0.467100 -0.355256 -0.775476 
0.206875 0.902764 0.280277 
-0.549244 0.354091 -0.736519 
0.237115 0.594554 0.735216 
0.787809 0.281829 0.480204 
-0.553274 -0.825334 0.027169 
0.274627 -0.933229 0.133338 
-0.337282 0.912469 -0.039203 
0.916874 0.035106 0.296167 
-0.530350 0.826878 -0.037742 
-0.589417 0.379441 0.697782 
0.870567 -0.123594 -0.393181 
0.943266 -0.158092 0.110532 
-0.549914 0.310239 0.760829 
0.847515 -0.448175 0.133385 
0.349926 0.691498 -0.579709 
-0.035024 0.970431 0.050590 
0.325422 -0.703820 0.602448 
0.116694 -0.927388 -0.294932 
0.711599 -0.527949 -0.392448 
-0.574485 0.692031 -0.396285 
-0.508677 0.685491 -0.484009 
0.178448 -0.327905 0.904879 
0.636255 0.086268 0.723692 
-0.263199 0.940696 -0.069681 
-0.097638 -0.264973 0.942914 
-0.581204 -0.534534 -0.594675 
-0.438813 -0.618408 0.645615 
0.125120 -0.834412 -0.506291 
-0.726355 0.668026 0.003899 
-0.175844 0.200414 0.946398 
-0.602216 0.006787 -0.784759 
-0.374779 -0.684905 -0.607085 
0.372248 -0.437915 -0.788068 
-0.407336 -0.656085 0.624172 
-0.739234 0.647760 -0.065219 
-0.468094 0.621047 0.605130 
0.911596 -0.307239 -0.082356 
-0.315602 -0.563577 0.750295 
0.608573 0.706538 -0.245766 
0.490391 0.399644 -0.731285 
0.012039 -0.954413 -0.255131 
0.608850 0.045166 -0.749592 
-0.628913 0.576426 0.496538 
0.925310 -0.202942 0.187510 
-0.875766 0.175608 -0.430550 
-0.836100 0.094627 -0.529070 
-0.651451 0.544629 0.501315 
-0.591334 0.259853 -0.744702 
0.211219 -0.704402 -0.648322 
0.738122 0.312049 -0.534601 
0.631351 0.379857 0.623363 
-0.044695 -0.939414 -0.300104 
0.289243 -0.750993 0.555645 
-0.459885 -0.239538 -0.843090 
-0.703013 0.094233 0.695478 
-0.954667 0.059116 0.273221 
-0.720891 -0.321235 -0.603427 
-0.097340 -0.914460 -0.356525 
-0.378457 0.878154 0.198956 
0.393893 -0.893424 0.082223 
-0.335441 0.265316 0.884142 
0.317373 -0.925732 -0.061115 
0.617421 0.645242 -0.367300 
-0.483247 -0.392404 0.768736 
-0.873616 -0.379772 -0.288978 
0.841912 0.045573 0.470939 
-0.217884 -0.014434 0.956029 
0.008443 -0.124238 -0.968288 
-0.245988 -0.855247 0.438359 
-0.721528 -0.662034 -0.177442 
-0.337545 -0.047836 -0.924571 
0.819783 0.055501 -0.500007 
-0.588670 -0.714837 -0.366353 
0.348917 -0.563093 0.721045 
-0.845164 0.241020 -0.463182 
-0.593203 0.711329 0.333735 
-0.934811 0.310525 -0.092605 
-0.596856 -0.749139 -0.268535 
0.555270 -0.000813 -0.790380 
-0.351087 -0.924234 -0.062462 
0.130745 0.501998 -0.821671 
-0.802249 0.545059 0.199104 
-0.651352 -0.730833 0.180503 
-0.396053 0.708776 0.553929 
0.409626 0.870148 -0.062263 
0.527579 0.281237 -0.761526 
0.776301 0.528911 -0.205673 
0.606460 -0.645223 0.406115 
0.456356 0.454424 0.722375 
-0.327715 -0.728115 -0.588840 
-0.931621 0.289890 0.192361 
0.804899 -0.542687 -0.011737 
0.444884 0.005519 0.865962 
0.002632 -0.010410 0.982210 
-0.006031 -0.229227 0.958055 
-0.315722 -0.637836 0.685201 
0.572218 0.111826 0.776429 
-0.691994 -0.403547 0.588598 
-0.289785 0.607842 0.717935 
0.347712 -0.530115 0.744689 
0.430987 -0.766850 -0.423859 
-0.915229 -0.295451 0.262402 
-0.945452 0.289184 -0.057220 
-0.790588 -0.570621 0.210990 
-0.904103 -0.394488 -0.146420 
0.161691 -0.917616 -0.304805 
0.195078 0.427968 -0.851725 
-0.115870 0.921730 0.285408 
0.688066 0.547170 -0.388760 
0.547431 -0.103330 -0.797403 
-0.601182 0.651484 0.427183 
-0.785947 -0.554688 -0.246845 
0.520707 -0.196437 -0.792779 
0.758156 0.583918 0.080204 
-0.823747 -0.058211 0.555240 
-0.502876 -0.389103 -0.760638 
-0.492786 -0.769423 0.395501 
-0.856449 0.447170 0.207284 
-0.318740 0.576175 0.730363 
0.759903 0.434856 0.393619 
0.919688 -0.012358 -0.271863 
-0.855012 -0.099872 -0.493412 
0.821095 0.490330 -0.102081 
-0.461597 0.825681 0.272560 
-0.968612 0.200935 -0.101853 
0.356002 0.667850 0.599435 
0.588112 0.502990 0.580679 
0.338096 0.121471 -0.903910 
-0.882042 0.267173 0.369053 
0.223099 0.117580 -0.939944 
0.895938 -0.245574 0.257161 
-0.601571 -0.019672 0.789015 
-0.263885 -0.165706 0.938326 
-0.450997 -0.800444 0.378030 
-0.963361 0.202950 0.134186 
-0.145487 0.811198 0.521201 
0.751125 -0.583845 0.176809 
0.114714 0.173522 0.957429 
0.107500 -0.394180 -0.890202 
0.207067 0.840929 -0.433132 
-0.675116 0.674347 0.248027 
0.670369 0.392970 0.573501 
0.728102 0.545449 0.313166 
0.291193 0.531682 -0.753669 
0.930662 0.198335 -0.140122 
-0.340871 -0.190072 0.906661 
-0.457091 -0.682811 -0.554542 
0.572465 -0.519529 -0.591056 
0.065994 0.688223 0.687886 
-0.823564 0.540245 0.102083 
-0.450205 0.213982 0.850567 
0.700331 -0.349152 -0.573487 
0.046259 0.562191 0.795946 
-0.233338 0.014001 0.952713 
0.423093 -0.829841 -0.293796 
-0.784936 0.594171 0.095770 
-0.341629 0.909499 -0.064259 
-0.870620 -0.355045 0.323142 
0.245119 -0.950616 0.042373 
0.227022 0.877983 0.327258 
0.373453 -0.887892 0.182664 
0.109601 0.807118 -0.526956 
-0.120868 -0.895601 0.400402 
0.904529 0.295772 0.127532 
-0.845844 0.358526 0.365893 
-0.569212 -0.227623 -0.774118 
0.575191 -0.493876 0.611821 
-0.496569 0.769766 -0.349826 
0.730760 0.548059 -0.305802 
0.917919 -0.261575 -0.155000 
0.657189 -0.584224 0.413784 
-0.403729 0.462097 -0.766909 
-0.702629 0.218585 -0.660922 
0.957398 -0.052612 -0.061469 
-0.665928 0.613904 -0.388636 
-0.297272 0.866128 0.343881 
-0.904008 -0.343301 -0.233354 
-0.360440 -0.918739 0.106928 
0.603503 0.747864 0.002405 
-0.645212 0.454128 -0.589983 
-0.735819 -0.604367 0.285984 
-0.200126 -0.128146 0.957822 
-0.207498 -0.500880 -0.820757 
-0.571027 0.760087 0.238271 
0.507697 -0.312421 -0.766723 
0.783272 -0.566830 0.037381 
0.084497 0.470355 0.853604 
0.379337 0.220725 -0.864577 
-0.407801 -0.707389 -0.560355 
-0.168664 0.074314 0.962708 
-0.521239 0.376515 0.747784 
-0.271404 -0.714838 -0.627842 
0.541634 -0.566375 0.583379 
-0.180349 -0.967157 0.036630 
0.435026 -0.452240 -0.740650 
0.005344 0.264012 0.943733 
-0.927986 -0.048517 0.365011 
-0.501370 -0.567297 -0.638323 
0.621606 0.241000 0.701017 
0.545236 0.375316 0.704929 
0.561955 0.777649 0.063188 
-0.160552 0.360547 -0.894213 
-0.640610 -0.750911 0.126017 
-0.183996 -0.402959 0.880565 
-0.476804 0.803540 -0.285785 
-0.322510 0.568748 -0.728830 
0.184388 0.818789 -0.482165 
0.417537 -0.774901 0.431551 
0.454595 -0.143382 -0.844340 
-0.628094 0.736699 -0.175801 
0.324529 -0.858925 0.342591 
-0.476024 0.073945 -0.861440 
0.759830 -0.217495 0.556719 
0.024072 0.967686 0.079198 
0.266098 0.146825 -0.924763 
-0.489483 -0.230891 0.829830 
0.695853 0.184516 0.644262 
-0.949775 0.262858 -0.123251 
-0.447633 -0.885128 -0.010209 
0.164710 0.823830 -0.482333 
0.854666 -0.307679 0.341916 
-0.662752 0.421983 -0.596232 
-0.622393 0.757099 0.129781 
-0.883779 0.059902 0.454084 
0.846400 -0.325073 -0.344109 
-0.359400 0.229694 0.886076 
-0.380347 -0.520150 -0.748038 
0.121234 -0.788187 0.573203 
0.203383 0.040563 0.955830 
0.786611 0.006337 0.561550 
0.611445 -0.374642 0.658071 
0.530719 -0.808699 0.133035 
0.187354 0.316897 -0.899277 
0.102920 -0.279680 0.935943 
0.277537 -0.933307 -0.107935 
-0.986028 -0.152577 -0.034686 
0.909500 -0.214639 0.239123 
0.561257 0.753568 0.229690 
0.122688 0.848153 0.458059 
0.843211 -0.305839 0.367780 
0.707637 0.651592 0.031988 
0.558784 -0.037641 0.795412 
0.326737 0.075545 0.916032 
-0.051194 -0.172522 0.965327 
-0.200934 -0.670461 0.697081 
-0.553959 -0.279350 0.774105 
-0.082684 -0.981801 -0.072961 
0.396625 -0.238951 0.858920 
0.352536 -0.899975 -0.150135 
0.770516 -0.584441 0.024773 
0.062134 -0.984504 -0.056136 
0.736219 0.378443 -0.490823 
-0.882898 0.092293 -0.447918 
-0.382873 -0.454557 0.793358 
0.441448 0.854893 0.056206 
0.402822 -0.128854 -0.874290 
-0.697329 -0.012589 0.704390 
-0.107214 0.822910 -0.508439 
-0.049397 -0.133187 0.970241 
0.872004 -0.383251 -0.180540 
-0.105907 0.859437 0.448614 
-0.010086 0.625106 -0.743675 
0.585025 -0.676906 0.384111 
-0.458787 -0.799924 -0.371735 
-0.715773 0.548617 0.403402 
-0.761729 -0.100677 -0.625180 
-0.715335 -0.637652 0.268922 
0.090230 -0.982894 -0.058080 
0.388342 0.831034 0.313450 
-0.885015 0.285121 0.351219 
0.187311 -0.847157 0.468850 
0.232778 0.832278 0.443396 
-0.894010 -0.285823 0.328721 
-0.699778 -0.699206 -0.107453 
0.455159 0.214555 0.834297 
-0.019874 -0.660696 -0.729535 
0.672517 0.517708 0.461838 
0.323973 -0.030575 -0.916225 
-0.525054 -0.282764 0.791500 
0.081206 0.832590 0.496041 
0.586923 -0.778404 -0.033243 
-0.540812 -0.730547 0.399004 
0.826048 0.455307 0.178987 
-0.285221 -0.939072 0.128041 
0.835641 0.085382 -0.467605 
-0.289399 -0.730332 -0.603590 
0.117467 0.644049 0.722942 
-0.349294 0.901853 0.136951 
-0.714732 -0.648360 -0.257124 
-0.022668 -0.823294 0.545574 
-0.813490 0.561132 -0.087849 
0.023744 0.280563 0.937151 
0.008111 -0.774630 -0.606773 
-0.837769 0.312254 -0.424556 
-0.360899 -0.848316 0.372050 
-0.458055 -0.479720 -0.732434 
-0.260971 0.191126 0.930728 
0.202464 -0.940444 -0.201105 
0.472227 0.430936 -0.726193 
0.704510 0.370301 0.547118 
0.586952 -0.541777 -0.555698 
0.056233 -0.420996 -0.885506 
-0.848266 0.388564 -0.328638 
0.579886 0.213535 -0.743665 
0.493873 -0.261742 -0.793675 
-0.249470 0.826085 -0.461328 
0.784272 0.072113 0.560788 
0.922463 -0.151663 0.242878 
-0.950644 -0.244048 0.172252 
0.591700 -0.365797 -0.676166 
-0.188433 0.808806 0.511803 
0.151282 -0.104424 -0.958459 
0.727714 0.107562 -0.625549 
-0.904945 -0.352982 0.221736 
0.890920 0.328344 -0.154607 
0.740310 0.253578 0.562895 
-0.339032 0.636045 -0.664002 
-0.739407 -0.039244 -0.660887 
-0.918290 0.301675 0.234730 
0.633447 0.150229 -0.713368 
0.392457 0.834544 0.292765 
0.184000 0.882994 -0.348736 
0.147403 0.192975 -0.942753 
0.247739 0.009012 0.943002 
-0.693257 -0.177811 0.688060 
0.192091 -0.657806 0.702080 
0.177574 -0.271180 0.925385 
-0.026009 0.342393 -0.911826 
-0.068769 -0.916641 -0.363896 
0.557134 0.666823 -0.416501 
-0.845076 -0.518406 0.115159 
0.240470 -0.737215 -0.601260 
0.951283 0.088271 0.098910 
0.023946 -0.494441 -0.844622 
-0.501991 0.329904 0.782792 
0.278413 -0.876317 0.341977 
0.564284 -0.756322 0.250350 
-0.526908 -0.804250 0.259201 
0.891632 0.338167 -0.126684 
-0.231995 -0.935444 0.236587 
-0.335482 0.717094 -0.573513 
-0.746188 0.502631 0.412658 
0.116337 0.690309 0.677756 
-0.948918 -0.066962 -0.293264 
0.131490 0.206762 -0.942206 
0.401755 0.578284 -0.665550 
0.550346 -0.279291 0.750977 
0.309291 -0.636755 0.675172 
0.491718 -0.834459 0.150903 
-0.769331 -0.617178 0.133366 
0.825125 0.444307 -0.208103 
0.185407 0.021361 0.961254 
0.811844 0.445101 -0.264150 
-0.197710 0.881728 0.369036 
0.673018 -0.324538 -0.613412 
0.942367 -0.197644 0.070992 
0.659527 0.243142 0.666547 
0.739123 0.543344 0.290281 
-0.743292 0.644199 0.117206 
-0.353148 -0.797099 -0.469612 
0.742175 -0.617778 0.051491 
-0.149767 0.659233 -0.702993 
-0.899426 0.407856 0.079217 
0.444256 -0.869823 0.051757 
0.438007 0.802265 -0.311930 
0.800310 -0.286745 0.467073 
-0.620092 0.476453 0.602657 
0.500310 0.062925 0.828604 
0.900777 -0.180277 0.294732 
0.882488 0.323724 -0.208638 
0.081100 -0.870910 -0.449587 
0.629125 0.300373 0.670316 
-0.417510 0.507288 -0.733964 
0.680432 -0.626803 0.301204 
-0.423127 -0.416425 0.791992 
0.896507 -0.246590 -0.248802 
-0.048883 0.946290 0.219318 
0.080348 -0.252947 -0.943725 
-0.174447 -0.743042 -0.625097 
-0.433708 -0.602714 0.662414 
0.082182 0.909561 -0.333848 
0.098440 0.656793 -0.710873 
0.654724 0.698661 -0.086741 
0.836559 0.472884 0.026739 
0.608712 -0.167759 0.736416 
-0.199972 -0.625720 0.737634 
-0.017919 0.951176 -0.206970 
-0.895596 0.198618 -0.374946 
0.368800 0.391951 0.809311 
0.662999 0.350088 0.608091 
-0.239151 -0.786256 -0.550016 
0.278799 -0.941468 -0.035960 
0.115138 0.760400 0.595718 
-0.247353 0.850712 -0.408568 
0.629088 -0.742862 -0.011471 
-0.457410 -0.627075 0.621262 
0.122222 -0.214668 -0.945494 
0.337843 0.774746 -0.467425 
-0.509531 -0.051361 -0.841587 
-0.431996 -0.817931 -0.366377 
-0.185490 0.923583 -0.248847 
0.352737 0.106857 -0.901587 
-0.611756 -0.654537 -0.434693 
0.201296 -0.751239 0.602797 
0.347163 0.677919 -0.596066 
-0.810388 0.557873 -0.109668 
0.874620 -0.209219 0.355844 
-0.802709 -0.490087 0.336047 
0.487701 0.004966 0.843461 
-0.766922 -0.634561 -0.026946 
0.275290 -0.854729 -0.390944 
-0.407519 0.539221 0.713822 
-0.363411 0.207307 0.891315 
-0.269016 -0.944200 0.115307 
0.486606 0.300528 -0.780178 
0.933508 0.208876 -0.078697 
0.138409 0.769876 0.576209 
-0.880127 0.257099 -0.379861 
0.712561 -0.616808 0.242139 
0.900067 -0.094814 0.329340 
0.688482 0.655971 0.171649 
-0.265465 0.245312 -0.910314 
-0.775958 -0.433938 -0.445967 
0.399005 -0.350763 -0.819398 
0.266324 -0.710650 0.625076 
0.878389 0.300917 -0.251055 
-0.015463 -0.982790 -0.080622 
0.421507 0.602313 0.631826 
0.150168 -0.933209 -0.254393 
-0.512162 0.757820 -0.356159 
-0.189835 0.726281 0.625862 
-0.644552 0.577977 0.474639 
0.212881 -0.957340 -0.055248 
-0.249185 -0.350690 0.887640 
0.468212 -0.829367 0.214522 
-0.890847 0.099356 -0.430256 
-0.681870 0.498856 -0.511255 
-0.353510 -0.421061 0.824636 
0.205098 0.075225 -0.946864 
-0.178966 -0.795774 0.560998 
0.535152 0.794212 -0.130406 
-0.668782 -0.658109 0.342652 
0.017972 0.626221 -0.742047 
0.100530 0.851922 0.456836 
-0.669604 -0.735617 -0.044483 
0.514306 0.356466 -0.739109 
-0.295346 0.110652 0.937541 
0.280123 -0.894569 -0.295608 
0.803923 -0.264618 -0.470236 
0.936089 0.050310 0.228971 
0.471949 0.634368 0.554526 
-0.901711 0.361845 0.194482 
0.845336 -0.252650 -0.395001 
-0.452624 0.608517 0.625636 
0.115299 -0.822395 0.527262 
0.829512 -0.182204 0.463071 
-0.644596 -0.738453 -0.179493 
0.392967 -0.474919 0.758528 
0.870489 0.361717 0.186237 
0.244223 0.218195 -0.915231 
0.658073 -0.714130 -0.059064 
0.019519 0.560130 -0.796019 
0.501976 -0.072837 0.830427 
-0.472982 0.548529 -0.659155 
0.682732 0.670141 0.110041 
0.237070 -0.141475 0.939097 
-0.576744 0.071309 -0.798006 
0.022458 -0.289984 -0.935739 
0.523905 0.553683 0.596817 
-0.025031 0.881815 -0.416258 
-0.800323 0.578482 0.010305 
-0.136234 -0.773720 0.602660 
-0.204411 0.881437 -0.364988 
0.507683 -0.767344 -0.333124 
0.731720 0.288555 -0.558495 
0.453616 0.789942 -0.316310 
0.096079 -0.558960 0.806893 
-0.181229 -0.737232 0.634766 
0.683503 0.607682 -0.297336 
0.793587 -0.535348 0.145580 
0.302521 0.904128 -0.159054 
0.038936 0.894898 -0.380054 
-0.201935 0.722636 -0.628289 
0.339394 -0.915196 -0.088508 
0.067288 0.178197 -0.957933 
-0.503239 0.741617 0.404667 
0.921933 0.185272 0.195444 
0.764392 -0.498759 0.328881 
0.502470 0.648087 0.513913 
-0.864407 0.188333 -0.447336 
-0.121124 0.324482 0.914839 
0.037615 -0.587809 -0.784997 
0.516440 0.402808 -0.710654 
-0.645916 0.197393 0.723639 
0.715476 -0.588583 0.302116 
0.674116 0.062374 -0.696584 
-0.578420 0.176524 0.783878 
-0.694385 -0.209901 0.677069 
-0.083326 0.052351 -0.975457 
0.559728 -0.070516 0.792556 
0.394651 -0.081824 -0.886637 
0.665654 -0.328891 0.628057 
0.542543 0.359722 -0.715700 
-0.605928 -0.683056 -0.398594 
-0.663083 0.546743 0.484002 
0.376281 -0.040816 0.897949 
0.769880 -0.586550 -0.040891 
-0.519882 -0.662559 -0.528505 
0.716945 0.462566 -0.443928 
-0.730867 -0.022803 -0.670613 
0.198600 0.786346 0.533336 
0.007282 -0.367260 0.911557 
0.672469 -0.695216 -0.126338 
0.039538 -0.878423 -0.439755 
0.921065 0.008724 -0.267799 
-0.995629 0.041547 0.000600 
0.219983 -0.589670 -0.746790 
-0.937126 0.322439 -0.007622 
-0.903500 -0.331191 -0.251776 
0.517526 -0.728549 0.390601 
-0.847093 0.315535 -0.402548 
0.587500 -0.657367 -0.416939 
0.235501 0.668172 -0.665047 
0.411087 0.222610 0.852400 
-0.031163 0.441750 0.871718 
0.841158 0.066139 -0.459767 
0.865303 -0.296396 -0.317636 
0.902886 0.104440 -0.319134 
-0.752885 -0.125874 0.634248 
-0.788839 -0.060788 0.603850 
-0.808833 -0.179563 -0.545195 
0.131943 0.687853 -0.672438 
-0.198830 0.684237 -0.667269 
-0.869595 0.415333 0.225727 
-0.064099 0.971418 -0.037431 
0.648919 0.458831 0.550958 
0.636580 0.698295 0.187119 
-0.206702 0.569650 0.767919 
0.685525 0.051612 -0.683128 
0.143454 -0.169743 -0.949709 
0.642902 0.431756 0.582140 
-0.536232 -0.599670 -0.577691 
-0.026584 -0.202454 0.961473 
-0.000281 -0.905801 -0.385872 
-0.950319 -0.277172 -0.125847 
0.864311 -0.097989 -0.414876 
0.775310 -0.560258 0.145566 
-0.640583 0.327381 -0.677669 
0.523975 -0.775406 -0.277923 
-0.716453 -0.454967 0.521690 
-0.015177 -0.562335 -0.805904 
-0.895968 -0.255950 -0.359209 
0.184326 0.909929 0.268891 
-0.578688 0.265897 0.755559 
-0.833915 -0.509673 -0.195758 
-0.549423 -0.302197 0.769141 
0.263144 0.926336 0.089479 
-0.968661 0.217922 0.058115 
0.163603 0.816474 0.500889 
0.534138 -0.819042 -0.014027 
0.922554 0.123016 -0.248898 
0.030069 0.073527 0.975554 
0.158194 -0.634954 -0.727865 
-0.270016 0.763393 -0.548543 
-0.643074 0.638118 -0.389004 
0.553669 -0.600810 -0.526078 
-0.027559 -0.665648 0.727229 
-0.132659 -0.065936 -0.965754 
-0.617918 0.278769 0.719998 
-0.864493 0.467462 0.097304 
-0.777238 0.606370 -0.037984 
-0.519140 -0.519320 0.666006 
-0.145691 -0.858772 -0.465440 
0.063206 -0.407976 0.895029 
0.201131 -0.845949 -0.458314 
0.387141 -0.798065 -0.414965 
-0.940324 0.089832 -0.312478 
-0.609709 -0.658543 0.425158 
0.194999 -0.258207 0.924312 
-0.208484 -0.345555 -0.898290 
0.790314 -0.558818 -0.070887 
0.351448 -0.504481 0.760939 
-0.045999 -0.831394 0.532718 
-0.160202 -0.673251 0.706839 
0.351195 -0.638996 -0.651196 
0.799307 0.532778 -0.061570 
0.630953 0.112329 0.726376 
-0.434701 -0.475098 0.755182 
0.148540 -0.842615 -0.485814 
-0.759121 -0.185682 0.613283 
0.553961 -0.677513 -0.430805 
-0.821181 -0.525503 -0.202514 
-0.102261 -0.893941 -0.404151 
0.153446 0.906503 -0.303835 
-0.243870 -0.250704 -0.920905 
0.315241 0.752504 0.524087 
-0.562704 -0.516849 0.630673 
0.502155 -0.553561 0.627483 
0.272242 0.848904 0.365384 
0.560727 0.402591 -0.676761 
0.035974 0.972462 0.003178 
-0.903513 0.334716 0.238936 
0.324940 0.617835 -0.671854 
0.160403 -0.939093 0.243428 
-0.291438 -0.659797 -0.674176 
0.156161 0.736418 -0.613163 
0.893372 -0.269409 -0.238843 
0.609018 0.428160 -0.612142 
-0.697554 0.356470 -0.601932 
-0.951084 0.204965 0.193119 
-0.320575 -0.497227 -0.794265 
0.951780 -0.127635 -0.057235 
-0.684311 -0.184791 -0.694573 
0.870679 -0.303075 -0.291322 
0.036140 0.142250 -0.964951 
-0.883770 -0.454724 -0.090204 
-0.593352 -0.512554 -0.603340 
-0.696481 -0.453230 0.549298 
0.909777 -0.027815 -0.308037 
0.159627 0.025616 -0.958854 
-0.680174 0.704143 -0.125676 
-0.128975 -0.927276 0.305130 
0.742146 0.489138 -0.360412 
0.127566 -0.340583 0.910380 
0.003992 0.540517 0.814003 
-0.578782 -0.761836 -0.274751 
-0.538398 0.357471 0.745687 
0.551824 0.413039 0.680642 
0.545253 -0.408512 0.696680 
0.345936 0.818775 -0.378220 
-0.528708 0.788568 -0.241928 
0.524174 -0.628075 0.530046 
0.496764 0.481635 0.675417 
0.676317 0.613543 0.310850 
-0.317930 -0.070909 0.928834 
-0.466655 -0.677565 0.555232 
-0.705034 0.427545 0.549129 
0.291662 -0.799061 -0.482125 
0.946722 -0.166659 -0.023466 
0.415470 -0.861086 -0.207713 
0.948152 0.102807 0.116848 
0.019779 0.455476 0.863847 
-0.574651 -0.692458 0.417822 
0.477065 0.244085 0.808112 
0.909180 0.039831 0.318320 
0.067879 0.460787 -0.855503 
-0.881456 0.124570 -0.438689 
0.657819 -0.595903 0.394380 
-0.085294 -0.734753 0.652872 
0.349117 -0.905116 -0.128258 
0.377306 -0.108359 0.893510 
0.642974 -0.400187 0.608681 
0.755292 0.579521 0.133836 
0.021028 0.714415 -0.658202 
-0.123541 0.851759 0.457875 
0.347072 0.805613 -0.406173 
-0.691539 0.542058 0.450333 
0.251247 -0.491482 -0.807499 
0.346679 -0.535467 -0.743573 
-0.328542 -0.771353 0.528026 
0.272809 0.902872 -0.214171 
-0.449438 -0.775206 -0.425761 
-0.633314 0.401774 -0.641415 
-0.002192 0.950406 0.212108 
0.585122 0.675021 0.361095 
0.819115 -0.468144 -0.216641 
-0.027483 0.723774 -0.649714 
-0.105346 -0.867741 -0.457865 
0.051390 0.700897 0.675795 
-0.478640 0.006414 0.864213 
0.169961 0.945145 0.151930 
0.351381 -0.083395 0.907947 
-0.436435 0.797645 0.371733 
0.255562 0.554375 0.756693 
0.691816 -0.498427 0.469501 
-0.508104 -0.538705 -0.657860 
0.780770 -0.564632 0.088246 
-0.218483 0.945847 0.105665 
0.752678 0.469404 0.370768 
-0.291664 -0.617255 0.714593 
-0.696465 0.656141 -0.234496 
-0.288643 0.906421 0.228557 
0.099879 0.932267 0.242294 
0.394754 0.878079 0.008030 
-0.355644 0.758024 -0.503836 
-0.442708 -0.342585 -0.813613 
0.211219 0.889557 -0.315530 
0.092913 -0.037913 0.973994 
0.313128 0.848345 -0.338026 
-0.140834 0.483437 0.839783 
-0.052814 0.971757 0.028924 
-0.751633 -0.650855 0.013349 
0.026621 -0.316426 0.929589 
-0.138529 -0.953904 -0.217345 
0.611404 -0.522982 -0.547395 
0.508614 -0.778371 0.300740 
-0.494553 -0.145581 0.844852 
0.522452 0.803446 -0.116946 
-0.217448 -0.515220 -0.808667 
-0.135750 -0.979060 -0.046907 
0.644627 -0.272839 -0.666028 
0.431104 0.531312 -0.682672 
0.714909 0.483158 0.431406 
-0.525083 -0.051194 0.837107 
0.673907 -0.701645 0.035334 
0.053730 0.729232 -0.637910 
-0.753601 -0.444797 0.477404 
0.327435 -0.787361 -0.475225 
0.632077 0.666013 0.283128 
0.918853 -0.036879 -0.273732 
-0.993658 0.059881 0.010598 
0.296743 -0.420530 -0.827977 
0.369854 -0.889927 -0.171922 
-0.277137 0.469468 -0.815446 
-0.609685 -0.307091 0.722708 
-0.648899 0.128060 0.738051 
-0.104185 0.851367 -0.460121 
0.146012 -0.430995 0.870155 
0.635191 0.553350 0.468820 
0.654819 -0.160859 -0.695644 
-0.688346 -0.239888 0.674592 
-0.668444 0.538014 -0.488206 
0.570438 -0.786019 0.081528 
0.296496 0.921327 0.046412 
0.233431 -0.901495 0.317781 
-0.448006 -0.711921 0.528528 
0.512357 -0.477213 -0.673685 
0.420403 -0.594984 -0.649012 
0.083203 0.951130 -0.156898 
0.345661 -0.069053 -0.906592 
0.875383 0.038687 0.404214 
-0.903235 -0.300388 0.292572 
0.459551 -0.815798 0.270528 
0.146221 0.823289 -0.491234 
0.053585 -0.964436 0.199041 
-0.430838 0.690105 -0.546161 
-0.462492 0.309295 -0.810996 
-0.331952 0.900294 0.179316 
-0.368038 -0.771233 -0.500929 
0.661457 0.630542 0.303182 
0.842133 -0.144667 -0.449135 
-0.119637 0.452980 0.859013 
-0.390096 -0.762022 -0.501743 
-0.421092 0.357934 0.814964 
0.608887 0.500508 -0.555480 
-0.354260 0.454045 0.795571 
-0.559732 -0.261181 -0.769544 
0.303007 -0.471766 -0.798709 
-0.411500 0.833117 -0.303562 
-0.476189 -0.686993 0.536516 
0.951988 0.148760 0.007047 
0.308878 0.817269 -0.419238 
0.850558 -0.263716 -0.375619 
0.823665 0.480160 -0.119469 
-0.240164 0.853854 0.417442 
0.556223 -0.482179 -0.638245 
-0.312360 -0.742711 -0.576268 
-0.248785 -0.725354 -0.627542 
-0.238496 0.791696 -0.522572 
-0.100626 -0.604730 -0.770070 
-0.122839 0.206234 0.954485 
-0.893396 0.383276 0.181506 
0.547346 -0.596441 0.542972 
0.589619 0.112788 -0.755978 
-0.356753 -0.785060 -0.486432 
0.240075 -0.265367 0.911525 
-0.577413 -0.790565 -0.175534 
0.683021 0.447046 0.514017 
-0.835779 0.194292 -0.495076 
-0.431141 0.719235 0.509386 
0.946651 0.078215 0.159077 
-0.189046 -0.694254 -0.676683 
-0.120580 -0.975474 0.121944 
0.425147 -0.681610 0.558528 
0.344198 -0.858526 0.325993 
-0.858411 -0.458474 0.216204 
-0.389671 0.419560 -0.797143 
-0.030491 0.516379 0.829424 
0.118976 -0.729605 0.653376 
-0.916286 -0.063145 0.386331 
-0.643737 0.228776 -0.714392 
0.726588 -0.620186 -0.162818 
0.864645 -0.159257 -0.392780 
-0.597212 -0.682344 0.404080 
0.178672 -0.398369 0.878912 
0.823674 -0.482451 0.161993 
0.046501 -0.934165 0.313050 
-0.834195 -0.444822 -0.319008 
0.238329 -0.919840 -0.246962 
0.294717 -0.909762 0.218577 
0.621466 -0.573568 0.478659 
0.008991 -0.677728 -0.716203 
0.811142 0.458400 0.244058 
0.341135 0.723955 -0.548600 
0.377394 -0.547648 -0.714150 
0.602208 -0.439824 0.622752 
-0.587419 -0.794166 -0.113019 
-0.727651 0.143303 0.660283 
0.372484 0.133095 0.887706 
-0.117424 -0.496113 -0.840727 
-0.767700 0.572121 -0.243791 
-0.298453 0.508985 0.784739 
-0.085365 0.735291 -0.631514 
0.796121 0.326160 -0.434103 
-0.063708 -0.243487 -0.946804 
0.037605 0.970868 -0.018403 
-0.762799 0.341519 0.533239 
-0.637096 -0.045721 0.759211 
-0.167502 0.958109 0.022969 
-0.862603 0.287555 0.396308 
-0.316610 0.519127 0.772921 
0.229524 0.817212 -0.465238 
0.850979 0.290067 0.346226 
0.765414 -0.529585 -0.265052 
-0.954444 0.003126 -0.278214 
-0.893760 -0.211516 -0.387695 
-0.876637 0.039493 -0.466897 
0.695961 0.639427 0.193402 
0.633350 0.401546 0.608857 
0.657534 -0.639388 0.319991 
-0.913139 -0.379484 -0.134149 
0.683241 -0.329298 0.606911 
-0.852754 -0.487328 -0.175605 
-0.549185 0.228747 0.789253 
-0.035312 0.802556 -0.548214 
-0.202435 0.274452 0.918414 
-0.775533 0.602882 0.113627 
0.298028 0.791982 -0.470075 
0.637765 0.049135 0.725023 
-0.716868 -0.678083 0.153590 
-0.961918 -0.259963 -0.012782 
-0.667337 0.713467 0.135502 
0.832453 -0.160531 0.466328 
0.013962 -0.658042 0.731884 
0.151395 0.059638 -0.959134 
0.542138 0.528292 -0.604159 
0.274895 0.615610 0.696768 
0.705847 0.633818 -0.165243 
-0.464411 0.438685 0.753552 
-0.289333 -0.124673 0.936229 
0.274349 -0.724147 0.601659 
-0.537920 -0.808877 -0.209013 
0.936849 -0.232332 0.032015 
0.451159 0.431429 -0.739754 
0.923893 -0.121489 -0.244084 
-0.230708 -0.414096 0.864638 
0.188130 0.204119 0.935919 
0.194908 -0.557160 -0.779391 
-0.840880 0.378553 0.357734 
-0.379412 0.441581 -0.790560 
-0.158954 0.653238 0.710823 
-0.147891 -0.414849 -0.879401 
-0.599174 0.214182 0.757629 
-0.605296 0.723724 -0.281231 
-0.714971 0.575435 -0.362185 
0.541891 -0.231344 -0.769799 
0.755770 0.526047 -0.278053 
0.850702 0.445464 -0.072706 
0.098725 -0.979681 -0.082976 
0.306762 -0.255062 -0.887562 
-0.785218 -0.601929 0.090227 
-0.777749 -0.412092 0.468324 
-0.079135 -0.871482 0.462495 
-0.706405 0.234847 -0.649080 
0.353004 -0.442125 -0.795886 
0.047652 0.730644 0.643069 
-0.474773 -0.868853 0.033444 
0.190590 0.527927 0.793643 
0.902866 -0.333093 0.071272 
0.304593 -0.754815 0.541878 
-0.753941 -0.236962 -0.603936 
0.834739 0.120566 0.469198 
-0.142113 -0.492222 0.844447 
0.586159 0.188723 -0.744713 
0.116158 -0.538659 0.815611 
-0.346814 0.052078 -0.919408 
0.002272 -0.564891 0.809755 
-0.527548 -0.844205 -0.037037 
-0.907567 0.375854 0.122761 
0.070509 -0.837672 0.513808 
-0.925674 0.285246 -0.215503 
0.799839 0.428697 0.320217 
-0.591923 -0.748111 0.298085 
0.088322 0.933096 -0.233542 
0.354796 -0.765723 0.499102 
0.476915 -0.255310 -0.806530 
0.292861 -0.732244 0.580135 
-0.263111 0.861655 -0.370720 
-0.361894 -0.097470 0.912406 
-0.412095 -0.638491 -0.632221 
-0.474023 -0.580459 0.649909 
-0.315283 0.827343 -0.416532 
-0.737181 -0.371620 0.555639 
0.425509 -0.568837 0.675418 
-0.277339 0.896581 -0.272036 
-0.783550 0.078276 -0.602731 
0.759779 -0.015820 -0.594750 
0.222656 -0.611534 -0.729421 
-0.297454 -0.772445 -0.541434 
-0.367680 -0.700467 -0.595482 
-0.326927 -0.811957 0.465446 
-0.492031 -0.471456 0.723910 
-0.930811 -0.233874 0.279040 
-0.752925 0.464458 0.445039 
0.230405 0.714015 -0.612533 
0.290602 0.315935 0.873443 
0.492257 -0.386459 0.749066 
-0.237892 0.784615 0.530618 
0.568962 0.738114 0.249617 
-0.596602 -0.698451 -0.387069 
0.753333 0.114408 -0.586818 
0.243527 -0.102870 0.940682 
0.544527 -0.801490 -0.129903 
0.378562 0.790076 0.412222 
0.469574 -0.856677 0.044291 
0.850988 0.259731 0.367589 
-0.197288 0.947870 -0.135225 
0.391055 -0.555109 0.707445 
-0.240106 0.775892 -0.544743 
0.420042 0.567225 -0.661340 
-0.139195 -0.974881 0.109745 
-0.028828 -0.086987 -0.973909 
0.159086 0.537559 -0.792000 
0.389041 0.804663 -0.365593 
-0.947211 -0.264674 0.159988 
0.751860 -0.203215 0.572657 
-0.063755 0.515704 0.828811 
-0.429982 -0.805392 0.391749 
-0.571180 -0.074812 -0.802549 
0.892446 0.345370 0.118491 
0.545774 -0.303110 0.746858 
-0.006854 -0.207136 -0.957719 
0.444594 -0.706544 0.506799 
0.167836 0.597320 -0.745078 
0.224496 -0.937991 0.187212 
0.742512 -0.469889 0.409028 
0.752443 0.572262 0.173687 
0.056475 -0.957339 0.231537 
0.385185 -0.687585 0.581986 
-0.712553 0.072964 0.689954 
-0.559979 0.518372 -0.624070 
0.046847 -0.540108 -0.817637 
-0.056865 -0.620256 0.765550 
0.279111 0.198383 0.912689 
0.838517 0.365004 0.303137 
-0.142032 0.900697 -0.346765 
-0.609593 -0.138844 0.768699 
-0.385768 -0.264689 -0.869250 
-0.967700 0.180378 0.137578 
0.404139 0.292913 -0.830692 
-0.078922 0.760681 0.603465 
0.529059 0.805317 -0.001013 
-0.571672 -0.727021 -0.372147 
-0.005151 -0.440976 0.879162 
0.178033 0.954180 -0.039652 
-0.593631 0.550915 -0.560652 
-0.455220 -0.596416 -0.648710 
0.142367 0.015959 0.969801 
0.936478 0.205525 -0.053763 
0.517339 -0.092845 0.817997 
0.806128 -0.526676 -0.126005 
0.960555 -0.015462 -0.036289 
-0.380814 -0.776255 -0.485403 
0.704047 -0.653055 0.159925 
-0.497539 -0.528572 -0.673725 
-0.180795 0.902521 -0.319742 
-0.989820 0.082276 -0.011824 
-0.071395 0.950632 -0.195538 
-0.551050 -0.040738 0.821221 
0.778668 -0.374182 -0.431937 
-0.816296 0.107641 0.546840 
-0.461903 0.536766 -0.677417 
-0.358734 0.809156 0.421312 
-0.786009 0.543339 0.255771 
0.743275 -0.026052 0.621415 
0.636450 0.715121 -0.098832 
0.364733 -0.653134 0.633722 
0.582868 0.714087 -0.284618 
0.759308 0.574260 -0.142214 
0.122629 -0.490976 -0.839204 
0.563236 -0.776784 -0.173291 
0.472555 -0.836985 -0.177673 
-0.860979 0.170545 0.462191 
-0.857662 -0.126336 0.487396 
0.589479 0.434842 -0.628900 
-0.990937 -0.032924 0.100395 
-0.476470 -0.323248 0.806559 
0.395052 -0.335445 0.828251 
-0.271742 -0.841564 -0.450850 
-0.832510 -0.325324 -0.435909 
-0.397265 -0.908879 0.047459 
0.329811 0.085871 -0.910657 
-0.646889 0.724773 0.166651 
0.246069 0.753172 -0.556093 
-0.529989 0.170534 0.817454 
0.404014 -0.474501 -0.746648 
-0.448192 -0.860217 -0.218980 
-0.728424 -0.489481 -0.468680 
0.087571 -0.362189 0.909228 
0.390614 0.521473 -0.714286 
0.021922 -0.803498 -0.571378 
-0.556428 -0.600249 0.567998 
-0.822160 -0.066246 -0.553092 
-0.479520 -0.682081 -0.538666 
0.050614 0.531820 -0.813313 
0.719382 -0.595673 0.281360 
0.707158 0.551948 0.351810 
-0.486555 -0.451938 0.737610 
0.128170 0.961157 0.015269 
-0.324480 0.160801 -0.913085 
0.909566 -0.292618 0.141206 
0.020226 -0.757593 0.629507 
0.440290 -0.209111 -0.839072 
0.230131 0.276311 -0.903481 
0.344325 0.003964 0.915042 
0.350525 -0.913734 0.062730 
-0.418681 0.827227 0.320394 
-0.039580 -0.545674 -0.817595 
0.554663 -0.519285 0.613280 
0.710027 -0.626765 0.220448 
-0.415107 -0.666739 0.607376 
-0.977185 -0.042028 0.195869 
0.739145 0.300833 0.542449 
-0.597105 -0.153289 0.775734 
0.775848 -0.043349 0.577684 
-0.953292 -0.210713 -0.200928 
0.829265 0.243115 0.424430 
0.246890 0.892385 0.281445 
-0.476539 -0.370549 0.783227 
-0.402890 0.725561 0.524552 
-0.753909 -0.581555 -0.286519 
0.260119 -0.776795 0.535009 
0.148584 0.918730 -0.261633 
0.873546 -0.283844 -0.298878 
0.102249 -0.510812 -0.830441 
-0.515099 -0.629744 0.570992 
0.081674 0.738836 0.628638 
0.402458 -0.575870 0.685125 
0.257371 -0.715758 -0.617171 
-0.747645 0.156021 -0.630170 
-0.107089 -0.737249 0.648600 
0.670309 -0.664005 0.228405 
-0.785860 -0.301412 -0.531273 
-0.430551 -0.636042 0.632646 
-0.864767 -0.494506 -0.041258 
-0.769733 0.598423 -0.162747 
-0.216821 0.054501 0.956157 
-0.121061 -0.916650 0.342850 
-0.539064 -0.763732 0.341166 
0.034770 -0.642542 -0.742840 
-0.006865 0.830062 -0.504385 
0.800252 0.028872 -0.535727 
0.673353 -0.063690 -0.691421 
0.774393 0.317596 0.479341 
0.085162 -0.097432 -0.969103 
-0.094293 -0.829686 0.531796 
-0.410691 -0.061212 -0.894881 
0.933127 -0.237714 -0.036750 
-0.732721 -0.645732 0.204092 
-0.231328 0.523144 0.796761 
-0.830013 0.331051 -0.420698 
0.471050 0.779135 -0.314169 
0.337491 -0.189231 -0.895918 
-0.435208 0.277129 -0.839413 
0.272454 -0.801902 -0.491301 
0.051733 0.648262 -0.721877 
0.559921 0.781850 0.042726 
-0.425917 0.880804 0.040318 
0.593162 0.397841 0.649679 
0.772940 0.014469 0.579606 
0.870876 -0.336777 0.253656 
0.619849 -0.032923 0.746243 
-0.325133 0.329387 -0.859895 
-0.403635 0.614331 -0.649496 
0.377068 0.855745 0.244195 
0.179718 0.477875 -0.824338 
0.068210 -0.983190 -0.077168 
0.380997 -0.588831 0.683778 
-0.080899 0.747774 -0.615824 
0.472929 -0.298864 0.798221 
0.934758 0.224417 0.009029 
0.265668 0.369058 -0.855792 
0.020293 -0.615850 0.766512 
-0.751688 0.217343 0.608132 
-0.742904 0.078923 0.653308 
-0.442526 0.802971 -0.345211 
-0.946146 -0.311819 -0.016788 
-0.093134 0.099382 -0.970829 
-0.120996 0.756418 0.603687 
0.268697 0.417375 0.835995 
0.097404 0.499094 -0.829319 
0.671795 0.200829 0.666308 
-0.833149 0.371925 0.379459 
0.042510 -0.844528 -0.503474 
-0.394451 -0.801116 -0.430928 
0.515305 -0.816813 0.156488 
0.732867 -0.422717 -0.471608 
-0.074798 0.927217 -0.286934 
0.357595 -0.104997 0.903565 
0.128256 -0.596762 -0.764562 
-0.303530 -0.838387 0.435333 
0.256947 -0.849721 -0.416178 
0.860568 -0.018278 -0.431539 
-0.034026 -0.920434 0.366078 
0.271124 0.840908 0.391021 
-0.143585 -0.656522 0.724249 
0.738416 0.251855 -0.567048 
0.034997 -0.230470 0.956306 
-0.957800 -0.102231 0.242459 
-0.097982 -0.793095 0.581376 
-0.463988 0.226685 0.840419 
0.893437 -0.074642 -0.350368 
0.322279 -0.558888 0.736122 
0.702645 0.512825 0.421685 
0.166851 0.785281 -0.545281 
0.708905 -0.496468 0.445482 
0.570836 0.484401 0.611021 
0.650811 0.550913 0.451606 
-0.990143 -0.067959 0.075527 
-0.473594 0.832348 0.217044 
-0.278510 0.111028 -0.933522 
0.268804 0.295058 0.887891 
-0.954146 -0.205133 0.199986 
0.228904 0.734459 0.594262 
0.375412 0.887412 -0.015443 
0.846500 -0.003382 0.461714 
-0.720850 -0.686337 0.058745 
-0.805923 0.571643 -0.008662 
-0.222706 -0.960938 -0.028937 
0.343976 -0.868635 -0.292585 
-0.130687 0.821539 0.508645 
-0.102906 0.173130 0.961157 
0.734364 -0.598863 -0.206260 
-0.322309 0.336651 0.866740 
-0.789674 0.102487 0.584480 
0.839461 0.378203 -0.272833 
-0.536968 0.821466 0.027468 
0.335325 -0.898173 -0.194101 
-0.549937 -0.525735 -0.631573 
-0.592261 0.275778 0.742427 
0.751755 -0.477785 -0.388785 
0.671063 0.376105 -0.581122 
0.208005 -0.446352 -0.844200 
-0.178082 -0.315293 -0.912439 
-0.923436 -0.169818 0.335596 
-0.784915 -0.471883 0.399448 
-0.066302 -0.186934 0.964029 
0.372813 0.503327 0.740647 
-0.998773 0.014242 0.032783 
0.739539 -0.557128 0.297423 
0.228755 -0.071497 0.945942 
0.885527 0.285114 -0.240164 
0.136476 0.887109 0.368900 
-0.528462 -0.779493 -0.321594 
0.763851 -0.572164 0.157932 
-0.904776 -0.398114 0.145014 
-0.673514 -0.677015 -0.276763 
-0.904985 0.287758 0.300988 
0.857560 -0.414484 0.172619 
0.405776 -0.519801 0.722900 
0.792463 0.377202 0.390193 
0.928678 -0.042017 0.251701 
-0.189910 -0.703778 0.669599 
-0.509272 0.775076 0.324406 
0.506944 -0.750002 0.367116 
-0.115010 0.027673 -0.970797 
0.260091 -0.859488 0.392929 
-0.880672 -0.416992 -0.218758 
-0.927636 -0.037769 -0.350662 
0.533991 0.571591 0.570327 
-0.634015 -0.616394 0.453277 
-0.981438 -0.001613 0.177313 
0.193601 0.286274 -0.910040 
0.025578 0.675178 0.703791 
-0.259891 0.849153 0.413491 
-0.249896 -0.537513 -0.785845 
-0.596294 -0.774362 -0.195258 
0.445687 0.133306 -0.849462 
0.082195 0.319196 0.918403 
0.043336 -0.473203 -0.856078 
0.876119 0.310360 0.249195 
-0.808072 0.518988 0.243524 
-0.894785 -0.441473 0.004654 
0.412633 -0.820268 -0.334422 
0.265248 -0.562554 0.759528 
-0.346424 0.228153 -0.889325 
-0.340077 -0.236010 -0.893802 
0.648706 -0.506523 0.518312 
0.398553 0.780211 -0.409996 
0.540134 -0.599141 -0.542110 
0.917803 0.102639 -0.272618 
0.358257 0.808809 0.390906 
0.867562 -0.225835 0.366215 
0.179726 -0.481289 -0.837267 
0.071511 0.541012 -0.807377 
0.499514 -0.518686 0.657628 
0.298962 -0.038256 0.926810 
0.316765 0.885118 -0.220615 
0.357772 0.768020 -0.462799 
0.728709 -0.422792 0.485928 
0.626029 -0.702214 -0.253826 
-0.942137 -0.073475 0.313427 
-0.956376 0.218344 -0.168747 
0.718640 0.622361 -0.149654 
-0.202469 -0.466132 0.848852 
-0.221520 0.845014 0.441409 
0.710274 -0.552804 0.366152 
-0.989490 0.052819 0.093718 
0.179253 -0.753480 0.605679 
-0.514478 -0.844091 -0.112116 
-0.600926 -0.089535 0.782615 
0.650543 0.120408 -0.706239 
0.222437 0.933480 -0.131805 
-0.594838 -0.795939 -0.061351 
-0.534931 -0.723394 0.419425 
0.686815 0.622848 -0.254310 
-0.737331 -0.558225 -0.362651 
0.255374 0.258643 0.904305 
0.296155 0.648273 0.653880 
-0.379782 0.275268 -0.862424 
-0.028836 -0.720918 -0.668639 
0.073567 -0.965749 0.185084 
0.375244 0.757788 -0.465923 
-0.123859 0.135131 0.963162 
-0.377848 0.854725 -0.289160 
-0.596810 0.032281 -0.786578 
0.943597 0.055343 -0.181595 
-0.622521 0.649974 -0.402398 
0.102368 0.947420 -0.164238 
0.761732 0.556191 -0.196160 
-0.549834 0.084019 0.818082 
0.852535 -0.382409 0.254244 
-0.476198 0.009151 -0.863149 
0.186570 -0.958215 -0.132768 
0.245812 0.188018 0.925255 
-0.015309 -0.366197 0.912492 
-0.806720 0.548120 -0.149507 
-0.608353 0.767883 0.118188 
0.809387 0.239952 0.469004 
-0.889907 0.439470 0.035632 
-0.891593 -0.037571 -0.445896 
0.722062 -0.323949 -0.559018 
-0.786653 0.171659 0.571720 
0.344698 0.899398 0.088255 
-0.954021 0.256444 -0.100370 
0.362188 -0.376285 -0.826779 
-0.489475 0.199315 -0.826720 
0.387421 0.080973 0.886567 
-0.958534 0.098044 0.254481 
0.257500 0.082972 -0.934684 
0.379137 -0.785969 -0.439883 
-0.432378 -0.573193 -0.684296 
-0.011104 0.899880 0.364416 
-0.459949 -0.000327 -0.870905 
0.852236 0.085488 -0.437173 
-0.273711 -0.923656 0.243579 
0.643978 -0.193088 -0.696706 
-0.364526 0.080490 -0.911214 
-0.474426 -0.250680 -0.833202 
0.711309 0.625783 0.176192 
-0.682657 -0.308102 0.654157 
0.618238 -0.305071 0.686752 
0.571200 0.762061 0.119265 
0.776440 0.548681 0.144577 
-0.565705 -0.793930 -0.195358 
-0.135208 0.187528 -0.951573 
0.615357 -0.682051 -0.321273 
-0.386245 -0.847454 -0.338610 
-0.644615 -0.438317 0.616392 
0.893980 -0.368464 -0.020810 
0.065508 0.570145 0.789072 
-0.697804 -0.516941 0.488685 
-0.898786 0.097018 0.409245 
0.403893 0.785479 0.394155 
0.457609 0.543033 0.655936 
-0.489525 -0.231084 -0.828737 
-0.572922 0.260329 -0.758636 
-0.228850 -0.731225 0.628876 
0.573433 0.136807 0.773715 
-0.005109 0.424682 -0.879442 
-0.514019 0.282166 -0.794223 
0.056744 0.888437 -0.390513 
