0.346517 -0.810101 0.430029 
0.556916 0.545537 -0.571077 
-0.653732 -0.733427 -0.158368 
-0.120871 -0.908235 -0.362519 
0.677894 0.645580 -0.224716 
-0.133867 -0.378181 -0.896912 
-0.923468 -0.294769 0.238295 
0.597482 -0.042851 -0.759234 
-0.775909 -0.570098 -0.245845 
0.383936 -0.671278 -0.597507 
-0.567892 0.110006 0.802462 
0.556141 0.781547 -0.104872 
-0.152905 -0.685317 0.698421 
0.800675 -0.483110 -0.243524 
-0.421063 0.874823 -0.119521 
-0.420035 -0.098877 -0.889052 
-0.308685 -0.873069 -0.352902 
0.549852 -0.219924 -0.767484 
0.771131 0.473470 0.322921 
-0.013292 -0.980425 -0.108028 
0.771985 0.116431 0.566772 
0.758361 -0.595221 -0.106211 
-0.035522 -0.223796 -0.952650 
0.033783 0.916896 0.318776 
-0.613249 -0.782316 0.044788 
0.430104 -0.114583 -0.862245 
0.207788 -0.786772 0.549399 
0.002315 0.964374 0.106344 
0.264692 -0.089474 -0.933451 
-0.198952 0.292530 -0.912490 
-0.624484 -0.688802 -0.351924 
-0.238846 -0.220393 -0.930308 
-0.489047 -0.826668 -0.263218 
0.787305 -0.333273 0.455380 
-0.869744 -0.469974 -0.127221 
-0.661963 0.642894 -0.341442 
0.481483 -0.370125 0.765820 
-0.345143 0.663008 -0.635163 
-0.818323 0.234515 -0.508007 
0.708362 0.293704 0.585909 
-0.065418 0.871799 -0.428695 
-0.344513 0.504894 -0.765588 
-0.506705 0.761720 -0.354537 
-0.328021 0.882643 -0.274334 
0.023434 -0.142392 0.969635 
0.263445 -0.603037 -0.722467 
0.870715 -0.241539 -0.337987 
-0.216063 0.948654 -0.098115 
-0.163062 0.516391 0.816916 
0.042918 -0.663902 -0.724593 
0.669639 -0.363550 0.601054 
0.163887 0.659538 -0.692551 
-0.220462 0.941188 0.127926 
-0.838817 0.432216 0.312894 
0.575100 -0.776996 -0.132349 
0.204828 0.854468 0.408167 
-0.566972 -0.020494 -0.808478 
-0.333062 -0.546726 0.755142 
-0.013594 -0.775645 0.607341 
-0.350100 -0.840651 0.395625 
0.442025 0.624801 0.590132 
0.670862 0.488495 0.493538 
-0.167584 -0.126000 0.962948 
-0.690822 0.362391 -0.605572 
-0.579384 -0.775580 0.236551 
0.032229 -0.636971 0.748343 
0.806414 0.522888 -0.013554 
-0.435463 0.119445 -0.875040 
0.917871 0.024570 0.295541 
0.741723 -0.403387 -0.474091 
0.018130 0.490158 0.844195 
-0.776910 0.144208 0.592728 
-0.209265 0.664119 0.687593 
0.131682 0.804175 -0.526784 
0.682451 -0.518064 0.462895 
-0.398711 0.008107 0.904398 
0.126247 0.914309 -0.292423 
-0.154611 -0.528346 0.819739 
-0.098550 0.310058 0.923345 
0.739578 0.597360 0.144225 
0.549861 0.163303 -0.777392 
0.317774 -0.261954 -0.881438 
0.818707 0.243492 0.446834 
-0.983454 -0.081422 -0.151502 
-0.036633 0.741315 -0.627907 
0.608565 -0.557567 -0.515747 
0.533019 -0.149430 0.797019 
-0.983985 0.113380 -0.055158 
-0.884396 0.347434 -0.278720 
0.558195 0.447655 0.650880 
0.053958 -0.871379 0.455069 
-0.919524 -0.380319 0.035131 
0.406595 -0.869711 -0.185876 
0.266990 -0.477918 0.810542 
-0.420984 -0.395090 0.803581 
-0.036252 0.101151 0.976337 
-0.224811 0.076773 0.954018 
-0.721698 0.333713 0.589110 
-0.197885 -0.809782 0.533974 
0.173657 0.555914 0.780140 
-0.587496 -0.349533 0.721780 
-0.543448 0.333902 -0.750688 
-0.361262 -0.703341 0.595562 
-0.619197 -0.116882 0.765106 
-0.371148 0.680670 0.604124 
0.731294 -0.582922 0.269390 
-0.074707 0.781653 0.576863 
0.127770 0.256527 0.933103 
0.570803 0.148428 0.775139 
0.729231 -0.632255 0.070457 
-0.851530 -0.475072 0.208047 
0.478674 0.359242 -0.759626 
-0.778221 -0.282266 0.554007 
0.466004 -0.526495 -0.672395 
0.581602 -0.780131 0.061455 
0.060528 -0.935214 -0.299907 
-0.520316 -0.501854 -0.675139 
-0.355004 0.809693 0.422915 
0.652268 0.613771 0.357091 
0.091378 0.961459 -0.086589 
-0.559617 -0.256070 -0.771340 
0.022515 -0.972936 0.170820 
-0.143703 -0.931870 0.283635 
-0.566240 -0.706573 0.405148 
0.313423 0.425002 0.815200 
0.166547 0.026716 0.966827 
0.711924 0.045808 -0.651545 
0.753663 -0.167021 0.580914 
0.786477 0.171990 -0.525347 
-0.711487 0.672973 -0.101300 
-0.544590 0.470371 0.675568 
-0.752937 -0.033230 0.647365 
-0.354730 0.879880 0.234339 
-0.447058 -0.652150 -0.594961 
0.174415 -0.920446 0.301887 
0.897913 0.221829 0.269371 
-0.124113 0.477229 -0.842404 
0.218342 -0.458960 -0.835639 
0.844853 -0.463900 0.092278 
0.459952 -0.679924 0.528632 
0.855277 -0.146147 0.428573 
0.658401 0.321409 -0.623925 
-0.782247 -0.279787 -0.547972 
0.486445 0.313259 0.775195 
0.955928 0.095197 0.004845 
-0.537971 0.665398 0.489569 
0.110204 -0.824920 -0.523548 
-0.415734 -0.879573 0.196461 
0.756654 0.372790 -0.463150 
0.597168 -0.404424 -0.649806 
-0.353066 0.500000 0.769194 
0.346920 0.899523 -0.091616 
0.172436 0.751319 0.590535 
-0.777520 0.605204 0.078393 
0.908519 0.305680 0.065890 
-0.849272 0.287746 0.423385 
0.114135 0.492399 -0.830791 
-0.013113 -0.039249 -0.979218 
0.318513 0.553897 -0.725404 
-0.333259 -0.566874 -0.736976 
-0.773744 -0.466027 0.423765 
-0.993451 -0.036602 0.058971 
-0.409797 -0.404040 -0.804296 
0.052245 -0.486433 0.852008 
0.571144 -0.708543 0.347747 
0.563521 0.765521 0.145244 
0.949840 -0.118998 0.091151 
-0.853924 0.487542 -0.089683 
-0.678126 0.201144 -0.692432 
0.363822 0.765479 0.471273 
0.183698 -0.962232 -0.077921 
0.472636 -0.822484 0.227911 
-0.802286 0.050154 -0.578451 
-0.868524 -0.075642 0.482686 
-0.598184 0.294100 0.731919 
0.395633 0.105284 -0.881553 
0.947858 -0.083929 -0.144690 
0.376648 -0.216820 0.872753 
-0.934927 0.172747 0.287434 
-0.551424 0.811122 0.038749 
0.312440 0.870000 -0.281685 
-0.700748 -0.154062 -0.681611 
-0.691931 0.555160 0.432427 
-0.949899 -0.088110 0.278078 
0.417100 -0.885519 0.032788 
-0.929599 0.056862 -0.346694 
-0.779662 -0.609206 0.088984 
0.792369 0.500754 -0.210506 
-0.654317 -0.537232 -0.518446 
-0.514465 -0.543226 0.649459 
0.682171 0.550386 -0.393932 
0.310760 -0.804309 -0.460166 
-0.088270 -0.555689 -0.811742 
-0.296049 -0.767200 -0.550190 
0.692210 -0.251244 -0.623923 
-0.273551 0.257926 0.906701 
0.466908 0.771379 -0.339248 
0.683325 0.678730 -0.021884 
-0.891338 -0.125902 -0.426677 
-0.114099 -0.814072 -0.546102 
0.847121 -0.388742 0.263198 
-0.231433 0.787382 -0.531845 
-0.089085 0.143324 -0.963257 
-0.721116 0.621173 0.259029 
-0.463356 -0.168940 0.857998 
0.202168 -0.197627 0.937451 
-0.281972 0.042605 -0.940558 
0.268433 -0.631233 0.698692 
0.186737 0.944593 0.136433 
-0.069193 0.940355 -0.245687 
-0.033750 0.636180 0.739111 
0.471106 0.784741 0.303971 
0.435346 -0.011775 0.871147 
0.116106 -0.316216 -0.918536 
0.830260 -0.030239 -0.488672 
-0.446919 0.286192 0.830272 
0.446245 0.692709 -0.503881 
-0.189348 -0.955085 -0.185194 
0.907193 -0.203362 0.258770 
-0.788683 0.405256 -0.423711 
0.902333 -0.315138 -0.157179 
0.692246 -0.627430 -0.272951 
0.496338 -0.531896 0.649689 
-0.449640 -0.760838 -0.449916 
-0.157619 0.640405 -0.717597 
0.642855 -0.020482 0.725904 
-0.513644 0.656922 -0.520020 
-0.791307 -0.452480 -0.403686 
-0.485583 -0.864090 -0.081843 
-0.162308 0.882725 0.386028 
-0.325994 -0.936112 -0.024454 
-0.946104 -0.295596 -0.122070 
0.897549 0.308359 -0.150537 
0.387310 -0.412682 -0.793721 
0.514771 -0.703874 -0.436955 
0.102432 0.124211 -0.964600 
0.249107 0.233930 -0.910188 
0.934662 0.133158 -0.191355 
-0.057254 -0.343738 0.919888 
-0.258363 -0.361670 0.880767 
-0.899695 -0.287506 -0.325493 
0.236810 -0.945464 0.133204 
-0.197660 -0.961748 0.113432 
0.323654 0.878341 0.243053 
-0.953464 0.247489 0.123653 
0.408734 0.869164 0.080242 
0.872542 0.178232 -0.364021 
0.046234 0.336382 -0.913098 
-0.887832 0.428496 0.082554 
0.916898 -0.300748 0.042974 
-0.939664 0.293992 -0.106993 
-0.507003 0.783782 0.303527 
0.904316 -0.059364 -0.326797 
0.314290 0.225616 0.893793 
-0.198171 -0.678268 -0.689731 
-0.541523 0.514254 -0.640200 
