0.253013 0.870878 0.325336 
0.595575 -0.613495 -0.463293 
-0.893783 0.389904 -0.196247 
0.031432 -0.723671 -0.661308 
-0.014342 0.453974 0.864760 
-0.948804 -0.296793 -0.067063 
-0.122610 0.607117 -0.752858 
0.863036 0.118786 0.415583 
0.023007 0.608406 -0.756632 
0.764773 0.490657 -0.311021 
-0.996918 0.023884 0.047501 
0.808473 0.454150 0.265198 
-0.506835 0.446435 0.718496 
-0.081191 0.803496 0.547785 
0.302410 -0.846285 -0.387584 
-0.252946 0.815144 0.475649 
0.783889 -0.402180 -0.399142 
0.011707 0.916858 -0.322532 
0.678331 -0.487124 -0.491080 
0.719226 -0.602425 0.259828 
-0.809612 0.566001 0.073163 
-0.159148 -0.898744 0.384717 
-0.582839 0.790935 -0.009656 
-0.948564 0.229649 -0.191024 
0.903147 0.247861 -0.211282 
-0.843427 0.313083 -0.413467 
-0.894646 -0.207654 -0.387098 
0.667630 0.545805 0.434425 
-0.607642 -0.544745 0.565620 
0.533672 -0.486553 -0.652847 
0.105047 -0.820972 -0.530443 
0.216725 -0.153488 -0.940048 
0.799332 -0.549429 -0.021437 
0.479287 0.453062 -0.708233 
0.387999 -0.658786 0.612187 
-0.861639 0.063406 0.493536 
0.610662 -0.552025 -0.519606 
-0.397725 0.570310 0.692456 
0.654901 0.608634 -0.357631 
-0.017429 -0.543970 0.823689 
0.049992 -0.658923 0.727423 
0.496975 -0.563428 -0.624113 
0.748190 -0.314365 -0.531296 
-0.431077 -0.153424 0.878326 
-0.800388 0.470010 -0.346120 
0.451053 0.350273 -0.780818 
-0.568559 -0.084480 -0.803628 
-0.835168 -0.499370 0.221738 
0.744033 0.306349 0.533510 
-0.198673 0.141543 0.952719 
-0.662181 -0.130117 0.730343 
-0.063785 -0.006835 -0.978074 
0.408958 -0.785442 -0.415368 
0.591359 0.672698 0.354494 
0.604985 0.108916 -0.745293 
-0.897437 -0.420629 0.103302 
-0.331603 -0.636568 -0.677036 
0.469838 0.159806 -0.830827 
0.707534 0.647731 0.062374 
-0.886227 -0.209013 0.407718 
-0.682898 0.212936 -0.684201 
-0.694345 -0.578866 -0.415567 
-0.003309 -0.751573 0.636195 
-0.591601 0.677192 0.396091 
0.391183 0.566476 0.684505 
-0.327132 0.506790 -0.770747 
0.860059 0.373761 -0.218198 
0.347550 -0.179452 -0.893351 
0.218159 0.225396 -0.921360 
0.745444 0.563540 0.228677 
-0.076502 0.699580 -0.676035 
-0.769641 -0.396780 0.491231 
-0.705541 0.143644 -0.677832 
-0.043492 -0.906973 -0.388955 
0.395193 0.788506 -0.395067 
0.036117 0.926884 -0.285041 
0.223357 0.540669 0.776447 
0.339820 -0.375198 0.835299 
-0.855099 0.465407 0.158423 
0.727160 0.199938 0.599203 
-0.591025 -0.274544 -0.742990 
-0.536290 0.778039 -0.262493 
-0.518855 -0.730314 0.429565 
0.286209 0.418065 -0.830075 
-0.147501 -0.861198 0.462011 
0.568050 -0.743914 0.272305 
-0.909162 0.162713 -0.362524 
-0.977406 -0.118804 -0.155306 
-0.410899 -0.884393 -0.192538 
-0.737049 -0.557310 -0.364671 
-0.004855 -0.806970 0.569489 
-0.356372 0.908663 0.067880 
-0.654175 -0.269442 -0.694865 
0.909844 -0.206672 0.246442 
0.863825 0.396710 0.147216 
-0.949333 0.263566 0.123577 
-0.086497 -0.221911 0.955227 
-0.535178 -0.109556 0.828683 
-0.004211 -0.956263 -0.257456 
0.335075 -0.010568 -0.911645 
-0.473371 -0.825227 0.291682 
0.333054 0.412800 0.814438 
-0.036946 0.417570 -0.882712 
0.598514 -0.152177 -0.748043 
-0.935284 -0.307857 0.152782 
0.855951 0.354578 0.258311 
0.864369 -0.433957 0.042356 
0.398034 -0.886633 0.119209 
-0.209333 0.919272 0.258442 
-0.867954 -0.195222 0.447106 
0.941495 -0.094222 0.194642 
0.880278 0.328213 -0.212468 
0.906996 -0.200552 -0.253409 
-0.578586 -0.758703 -0.282619 
-0.462657 -0.758107 0.449108 
-0.748339 0.522320 0.382187 
0.227050 -0.866022 0.403620 
0.414188 -0.863746 0.199646 
0.494603 -0.789283 0.291430 
0.901669 0.329497 0.040735 
0.512545 -0.511482 0.652970 
-0.421262 -0.867595 -0.233269 
-0.390011 -0.427181 -0.800835 
-0.864593 0.124207 -0.470739 
0.014700 0.329314 -0.917607 
0.194088 0.917956 -0.235128 
0.557444 0.742307 -0.263441 
0.293453 0.822930 -0.422405 
0.719974 -0.159401 -0.623810 
0.808255 0.346314 -0.400845 
-0.771114 0.046319 -0.620549 
0.939259 0.199558 -0.038137 
0.959521 0.030569 -0.050212 
-0.509810 -0.702328 -0.479643 
0.272067 0.865216 -0.335034 
-0.051517 0.165952 -0.959785 
0.250964 -0.187241 0.925923 
0.038324 0.655366 0.722706 
0.584123 -0.606443 0.490433 
0.116320 0.289986 -0.920485 
-0.433137 -0.627116 0.641065 
-0.777587 0.508190 -0.340628 
-0.961535 0.144662 -0.204051 
-0.790695 -0.470232 -0.388531 
0.058790 0.630904 -0.736252 
-0.937246 0.297579 0.152163 
-0.660888 -0.649296 -0.359038 
-0.948417 0.279205 -0.064975 
0.823309 0.185817 0.468079 
-0.628078 -0.670518 0.381821 
0.101909 -0.372095 -0.900939 
0.376514 0.608121 -0.655518 
-0.140115 -0.569360 0.793812 
-0.170492 -0.748330 -0.620011 
0.176765 -0.844447 -0.471911 
0.955803 0.025162 0.117910 
0.734770 -0.424640 0.475335 
-0.010519 -0.940410 -0.301239 
0.575884 -0.664234 0.426808 
-0.587079 0.178666 0.777593 
-0.159262 0.048092 0.965391 
-0.382641 -0.182422 -0.888834 
0.225587 0.840821 0.431768 
0.225469 -0.003566 0.948995 
0.133464 -0.959821 -0.164477 
0.703883 0.034861 -0.661274 
0.512236 0.653783 0.497894 
-0.444958 0.052964 -0.877158 
0.419832 -0.221279 0.852912 
0.549900 -0.431788 -0.676487 
0.542979 0.131000 0.794881 
-0.289685 0.269192 -0.893655 
0.503231 -0.834733 0.083166 
0.461785 -0.256013 -0.816339 
-0.126252 0.729484 -0.634119 
0.092251 -0.885510 -0.414373 
-0.501278 -0.847220 -0.135421 
0.157296 -0.885456 0.399106 
0.450503 -0.857167 0.148726 
0.278644 0.408196 0.837221 
-0.248727 -0.754728 -0.588727 
-0.520815 0.829123 -0.095901 
-0.233000 -0.956011 0.044511 
-0.480557 0.852045 -0.051624 
0.473807 -0.415754 0.743043 
-0.134079 -0.976869 0.036414 
0.783764 -0.353675 0.446018 
-0.889417 0.283712 0.342968 
0.070155 -0.705918 -0.679325 
0.706996 -0.590321 0.316563 
0.844153 0.339396 -0.308551 
-0.321474 0.592874 0.714694 
-0.580025 0.228020 -0.761615 
-0.698949 0.089819 -0.695021 
-0.890580 0.152364 -0.410930 
-0.227825 -0.100107 0.954043 
0.805871 -0.161662 -0.505592 
-0.769006 -0.006923 0.631189 
0.196582 -0.135201 0.953180 
0.749054 0.040542 -0.606678 
0.506116 -0.273760 0.783066 
-0.975392 0.195862 -0.003503 
0.618386 0.648728 -0.359517 
0.589237 0.705309 -0.292263 
-0.094360 -0.323918 -0.922121 
-0.393564 0.088734 -0.900194 
0.213568 -0.358177 0.885734 
-0.852181 0.460360 -0.188484 
-0.624432 0.548020 0.532667 
0.898756 0.234538 0.259374 
0.958108 0.035935 -0.095994 
0.172310 -0.107746 -0.954475 
-0.951225 -0.060900 0.286023 
0.191035 -0.749243 0.608379 
0.504454 -0.525283 -0.647873 
0.659668 0.681277 0.164747 
0.869327 0.111113 -0.401713 
-0.892384 -0.438559 0.058617 
0.298989 -0.690930 -0.624724 
-0.916360 0.070003 -0.383024 
-0.401644 0.649655 -0.619358 
-0.516884 0.124484 -0.826930 
0.017682 -0.642271 -0.744075 
-0.867044 0.014088 -0.484865 
-0.241176 0.417711 0.855075 
0.347738 -0.421917 0.812280 
0.339172 -0.878886 0.281574 
-0.072580 -0.826144 0.538204 
0.865757 0.399483 -0.112980 
0.851568 -0.212708 -0.401647 
0.291211 0.587116 0.715928 
-0.347067 0.910599 0.002793 
-0.010809 -0.921911 -0.349306 
-0.180860 -0.293904 -0.918824 
-0.486416 -0.813947 -0.298209 
-0.024508 0.957098 -0.179033 
0.088185 0.054393 -0.969802 
-0.314388 0.122943 0.930274 
-0.321514 0.695810 -0.609995 
0.630273 0.344173 -0.638204 
0.450268 0.822068 0.221665 
0.352875 -0.672343 -0.615561 
0.819976 0.392364 -0.309499 
-0.889040 0.058868 0.442904 
-0.603846 0.287780 0.729161 
-0.326608 -0.867835 -0.349138 
0.357377 -0.783953 -0.459299 
-0.453131 -0.105485 -0.869884 
-0.092250 0.509599 -0.826957 
-0.744199 -0.657116 0.055116 
-0.177165 0.869400 0.409288 
-0.981512 0.151269 0.077862 
-0.142041 0.961264 -0.054076 
0.357064 0.061765 -0.901923 
-0.534220 -0.806443 -0.231370 
0.394358 0.715389 -0.515309 
0.840814 -0.095458 -0.470455 
0.711761 0.629969 0.158623 
-0.082349 0.879715 0.411590 
-0.707952 0.458324 -0.516696 
-0.838711 -0.322537 -0.425657 
-0.357263 0.130328 -0.907517 
0.896905 -0.112369 0.332996 
0.442406 0.755143 0.408777 
0.336897 -0.500281 -0.770796 
-0.650828 0.632541 -0.385022 
-0.018619 0.903459 -0.360722 
-0.741968 0.219980 0.619070 
-0.175441 0.954222 -0.090338 
0.774948 0.545074 0.164740 
-0.577151 0.683526 -0.407124 
0.504884 0.528531 0.631537 
0.093171 0.967620 -0.001362 
-0.324360 0.916468 0.102706 
-0.846323 -0.179203 0.491343 
0.501486 -0.001608 0.835356 
-0.430878 -0.886432 -0.116185 
0.904514 0.198443 -0.257604 
-0.820892 -0.557678 0.077437 
-0.162568 -0.377160 -0.892870 
0.270001 -0.092801 0.933360 
0.440500 -0.439186 -0.745010 
-0.391273 0.892541 -0.003837 
-0.037379 0.971408 -0.048532 
0.290668 -0.578562 0.735685 
-0.602939 -0.018039 0.788127 
0.339610 -0.387949 -0.828731 
-0.218313 -0.754493 0.603302 
-0.344225 0.909134 -0.050444 
-0.545331 -0.686287 0.466212 
0.222508 -0.241654 0.921652 
-0.323957 0.437992 -0.819756 
0.918402 -0.277508 -0.134776 
0.682084 -0.223812 -0.646517 
0.358877 0.859508 0.257598 
-0.419203 0.735155 0.497202 
0.924318 0.158424 0.214904 
-0.164992 0.244740 -0.933903 
0.832206 -0.456107 -0.199918 
-0.720324 0.519705 0.434355 
0.205885 0.210546 0.930538 
-0.286996 -0.941588 0.096305 
0.841720 -0.462458 0.126014 
-0.301500 0.227608 -0.905302 
0.904045 0.041837 -0.330394 
0.082782 0.599531 0.766541 
0.419138 0.501336 0.712793 
-0.353365 0.150310 0.912029 
0.900849 0.299036 0.150733 
-0.095062 0.345876 -0.907276 
0.678604 -0.595774 0.357996 
-0.891728 -0.050776 0.441441 
0.134006 -0.226073 -0.940916 
-0.403583 0.668797 0.596878 
0.208136 0.938111 -0.127583 
0.220574 0.002519 -0.949075 
0.617186 -0.681229 0.313973 
0.896815 -0.350524 -0.070284 
0.729684 -0.571951 -0.294775 
0.634145 0.152201 -0.712234 
0.398340 0.085915 0.880150 
-0.702026 -0.392142 -0.583000 
-0.655374 -0.743264 -0.080387 
-0.655536 0.732226 0.041258 
0.053877 -0.344514 -0.915726 
-0.428478 0.843016 -0.242751 
-0.355497 0.469393 -0.786401 
-0.714986 0.158126 0.672780 
-0.854033 -0.387514 -0.334231 
-0.687071 0.438749 -0.558852 
0.116930 0.921965 0.268362 
-0.757416 0.449419 0.450612 
-0.817554 -0.476868 -0.306270 
-0.014451 -0.364156 0.913214 
0.534154 -0.298905 0.756126 
-0.821518 -0.302747 0.477049 
-0.969641 0.124130 0.190231 
0.581115 -0.683246 -0.380330 
0.079543 0.122204 -0.968740 
0.039929 -0.805433 0.571745 
-0.874085 -0.092338 -0.463991 
0.012047 0.579377 0.786106 
-0.910765 -0.383361 -0.137551 
0.827558 0.451643 0.181185 
-0.235238 -0.295030 0.913143 
0.076209 0.941487 -0.204227 
-0.922056 -0.256661 -0.276102 
0.866682 0.022655 -0.418118 
0.209968 0.923157 0.205476 
-0.095299 -0.798054 0.575515 
-0.367863 -0.651211 -0.643523 
-0.592139 0.460037 0.643899 
0.302718 0.843428 -0.361481 
0.031234 0.068115 0.975967 
0.167813 0.911889 0.272297 
0.882453 -0.377996 -0.109233 
0.612660 -0.346588 0.672715 
-0.334041 -0.313597 0.878086 
0.136318 -0.682542 -0.695257 
0.934594 0.098645 0.215984 
0.564132 -0.347073 -0.712425 
0.587571 -0.509486 -0.584054 
-0.019127 -0.208871 -0.956955 
0.542014 -0.092923 -0.802383 
-0.657855 -0.076971 0.740213 
-0.470664 0.574672 0.646974 
0.560672 0.580583 0.532814 
-0.736423 -0.366242 0.560761 
-0.063135 -0.978152 -0.125449 
-0.920272 -0.294205 -0.238063 
-0.821099 -0.181593 0.532296 
-0.808906 -0.518801 -0.250362 
0.886260 0.350540 -0.124957 
0.944624 -0.163584 0.091359 
0.732362 0.615782 -0.104020 
0.547038 0.761075 -0.223984 
-0.093571 0.692605 0.679646 
0.255832 -0.362874 -0.865176 
0.181291 0.638533 -0.706441 
-0.320673 0.766734 -0.515316 
-0.439084 -0.884245 0.105169 
-0.496555 -0.848500 0.152310 
-0.065410 -0.527734 0.829584 
0.229094 0.271255 -0.905815 
-0.327729 -0.265800 0.894790 
-0.487866 -0.683924 -0.528412 
-0.443088 0.285912 0.832056 
0.856453 -0.417630 -0.181151 
0.045786 -0.774985 0.608349 
0.306532 0.253261 0.887746 
0.661253 0.292311 -0.637790 
0.042812 0.395151 0.893782 
0.020402 -0.375567 -0.907324 
-0.254308 -0.953679 -0.013667 
0.138907 -0.452803 -0.858207 
0.161421 -0.551546 0.797208 
0.431870 -0.743501 0.467675 
0.726639 -0.543335 -0.342960 
-0.034635 0.951819 0.204166 
-0.269017 0.493099 0.803593 
0.133927 0.876436 0.400267 
0.807238 -0.158381 0.505258 
-0.298757 0.664419 -0.652359 
0.077342 0.782615 -0.569782 
-0.803111 0.570946 -0.099345 
-0.303844 0.902762 0.219790 
-0.396045 -0.900465 -0.140812 
-0.803636 0.249501 0.526303 
0.735321 -0.002764 -0.623412 
0.780718 0.558086 0.035036 
0.877914 -0.372895 -0.171432 
-0.130368 0.923480 -0.276054 
-0.282650 0.926248 0.128229 
-0.894365 0.280875 -0.326354 
0.473689 0.811870 -0.215341 
-0.661878 -0.417304 0.614868 
0.042117 -0.742604 0.645843 
-0.418977 0.872317 -0.142251 
-0.069377 0.957085 0.168466 
-0.638992 0.734354 0.160056 
0.248220 0.705464 0.617917 
-0.826582 -0.098386 0.543676 
0.928166 -0.266528 0.063180 
0.552814 -0.501140 0.629122 
0.147262 -0.749258 0.620290 
0.888141 -0.228693 0.300329 
-0.762056 0.354629 0.524859 
-0.493564 -0.323266 0.796305 
-0.586723 -0.422126 0.683610 
-0.636492 0.656142 0.367887 
0.030714 -0.964271 -0.198993 
0.951394 0.074265 -0.132943 
-0.648187 0.554736 0.494748 
-0.781715 0.601011 -0.008054 
-0.774280 -0.600029 -0.182565 
0.568445 0.544335 0.564415 
0.423392 -0.482010 -0.729137 
0.595786 0.062574 -0.758688 
-0.669554 -0.690643 0.260442 
-0.399000 -0.614004 0.671938 
0.496738 -0.760641 0.361433 
0.558737 0.410095 -0.674969 
0.118745 0.172292 -0.952283 
-0.467086 0.030624 0.870199 
0.721200 0.406864 0.494916 
0.230837 0.380165 -0.861234 
-0.814898 0.516539 0.220367 
0.059776 -0.472557 0.859167 
0.552889 -0.740966 -0.309900 
0.064133 0.101487 0.969924 
0.597930 0.643158 -0.401882 
0.706076 -0.252407 0.615159 
-0.720075 -0.521738 -0.445312 
-0.765693 0.053391 0.628184 
-0.374530 0.426289 0.802947 
-0.428847 0.754278 -0.457990 
0.136376 -0.970035 0.110375 
0.283386 -0.234166 0.906460 
-0.535612 -0.433702 -0.710669 
-0.162927 0.081677 -0.961059 
0.867809 0.053023 0.417383 
0.345722 -0.531145 0.744874 
-0.199226 0.842305 0.452845 
0.292463 0.920970 -0.033910 
0.421719 0.795421 -0.352798 
0.729489 0.000236 0.637221 
0.047444 -0.950048 -0.251228 
-0.982624 0.143675 0.007276 
-0.507030 0.785328 0.298913 
-0.167927 0.632884 -0.722046 
0.684746 -0.688679 0.054030 
-0.275190 0.176299 -0.926815 
0.896321 0.289346 0.200980 
0.533430 0.715222 -0.355992 
-0.248423 -0.335411 0.894282 
0.274366 0.373376 -0.851500 
-0.144980 0.406012 -0.877687 
-0.112577 -0.863510 -0.464686 
-0.217375 -0.158264 0.950071 
-0.589775 -0.423699 -0.676056 
-0.664043 0.368724 0.632201 
-0.055261 0.794480 -0.558201 
-0.284651 -0.616378 0.718386 
-0.884543 -0.434008 -0.151243 
-0.600142 0.357754 -0.697180 
0.327119 0.885909 -0.201425 
0.764471 -0.158996 -0.569715 
-0.646775 0.667348 -0.322366 
-0.342395 -0.727415 -0.582864 
-0.083990 0.446782 -0.864801 
-0.675013 0.297458 0.661082 
-0.062689 0.469242 0.855193 
-0.675824 0.169836 0.706184 
0.069113 -0.128775 0.967472 
-0.730290 -0.425351 0.524700 
-0.825218 0.353592 0.412074 
0.889057 -0.233513 -0.288886 
0.603101 -0.743628 -0.180102 
0.759462 -0.596532 -0.087148 
-0.917178 0.006358 -0.379495 
-0.371701 0.822680 0.385318 
0.185134 -0.953667 -0.164515 
0.253879 -0.910229 0.262135 
0.377626 -0.571558 0.700718 
0.220451 0.079481 -0.943345 
-0.410097 0.229143 -0.865564 
0.013879 0.785376 -0.576782 
0.213610 0.789812 -0.517529 
0.890740 -0.185606 -0.320028 
-0.234367 0.887484 0.333942 
0.084852 0.756922 0.604440 
0.893793 0.317452 -0.156511 
-0.004975 -0.859882 0.484168 
-0.148274 -0.962366 -0.177943 
0.597263 0.178651 -0.737626 
-0.682866 0.660055 -0.256633 
0.387399 -0.899921 -0.046095 
0.026810 -0.880028 0.441236 
-0.065502 -0.079824 0.977287 
0.829206 0.139491 0.473001 
0.777721 -0.088373 0.569439 
0.370713 0.511282 -0.730823 
0.317579 -0.924896 -0.067563 
0.525684 -0.764555 0.313663 
-0.267933 0.919554 0.187142 
0.296420 -0.792741 -0.488781 
0.099021 -0.039557 -0.971215 
-0.042349 -0.941226 0.289849 
0.147923 -0.925414 0.303921 
-0.459152 -0.058108 -0.869643 
0.072744 -0.805454 -0.560797 
0.302835 0.866970 -0.299358 
0.855479 -0.237337 0.385315 
0.586728 -0.674963 0.384716 
-0.280681 0.773596 0.527222 
-0.796904 0.149054 -0.570311 
-0.787124 -0.178203 -0.578872 
-0.024710 -0.955492 0.246274 
0.560109 -0.799199 0.000410 
-0.680895 0.712362 -0.045757 
0.496312 -0.101995 -0.829257 
-0.734910 0.107116 -0.656201 
0.441583 -0.098156 -0.858952 
-0.611075 -0.363758 -0.691148 
-0.639947 0.745693 -0.037658 
-0.838465 -0.431994 -0.323985 
0.235017 -0.300935 0.901401 
-0.224311 0.131622 -0.944029 
0.044002 -0.970237 0.175280 
0.598621 0.016407 -0.757972 
0.680465 0.478790 0.489745 
-0.246055 0.930554 -0.166960 
-0.856039 0.338927 0.363047 
-0.769429 -0.463007 -0.430277 
0.663336 -0.162393 0.690656 
0.611157 0.461073 -0.584905 
-0.838617 0.503720 0.135261 
0.511460 0.162633 -0.804448 
-0.310106 -0.558628 0.756720 
-0.147866 0.126094 0.961186 
-0.009632 0.190253 0.961401 
0.277899 0.496202 -0.784807 
-0.544085 -0.011777 -0.823504 
0.216325 0.941048 -0.062869 
0.044374 -0.091791 0.975038 
0.590440 -0.318199 0.704064 
-0.330564 -0.937091 0.006885 
-0.822044 0.486466 -0.244323 
-0.627616 -0.759619 0.133782 
-0.997031 0.021847 -0.007124 
0.701861 -0.411183 0.529967 
0.293891 0.458462 -0.804017 
0.385726 0.845491 -0.268791 
0.192259 0.317081 -0.897827 
0.688969 0.290342 0.612764 
0.117564 0.959898 0.065841 
0.006993 -0.408283 0.896275 
0.386789 0.881103 -0.093721 
-0.678961 -0.727500 -0.022794 
-0.132630 -0.234365 0.947880 
0.755167 -0.517537 -0.314058 
0.954057 -0.093860 -0.086089 
-0.730929 -0.648332 0.203281 
-0.133844 0.481371 -0.838661 
0.351870 0.157187 0.895483 
-0.696375 0.619865 -0.313073 
-0.720880 -0.091844 -0.670411 
0.959694 -0.038875 -0.029466 
-0.119685 0.849326 -0.461243 
-0.851310 0.265697 -0.441314 
0.240045 0.937735 -0.018767 
-0.186019 0.335249 -0.900258 
-0.789049 -0.559300 -0.229148 
0.366141 0.702271 -0.556811 
-0.053519 -0.017522 0.980613 
-0.556574 -0.242819 -0.777933 
-0.750523 0.264656 -0.588125 
-0.009170 -0.526608 -0.827406 
-0.848760 -0.523769 0.061906 
0.012325 -0.276115 0.944606 
0.816218 -0.280449 0.440939 
-0.285839 -0.261619 0.910444 
-0.706963 -0.692192 0.143562 
-0.950090 -0.154582 -0.249794 
-0.867620 0.146990 0.460003 
0.939636 0.048315 0.215738 
-0.964472 -0.060329 0.237720 
-0.517166 0.409697 -0.730228 
0.692432 0.445959 -0.505999 
-0.182322 0.722874 -0.632046 
-0.484182 -0.217386 -0.835085 
-0.938207 0.305103 0.107216 
-0.231233 0.699653 0.646037 
-0.754782 -0.158844 -0.619049 
0.646582 0.493524 0.518669 
-0.019090 -0.975062 0.166994 
0.229675 0.938975 0.037717 
0.566345 0.768091 -0.138659 
0.004215 -0.026871 -0.978515 
-0.028760 -0.975184 -0.162703 
-0.119440 0.774801 -0.576026 
0.825135 -0.111311 0.493280 
-0.861571 0.463723 -0.141768 
-0.220330 0.383239 0.878199 
0.933114 -0.245369 0.006542 
0.623766 0.203917 -0.707682 
0.309443 -0.915533 -0.148499 
0.172797 -0.906911 0.341958 
0.827429 0.493234 -0.052255 
0.594811 0.755071 -0.100870 
-0.328444 0.885773 -0.266535 
-0.167334 -0.930735 0.278252 
-0.745947 0.636190 -0.090477 
0.025076 -0.803504 -0.571288 
-0.653857 0.545857 -0.499937 
0.710723 -0.168640 0.637557 
0.683407 -0.224707 0.649506 
-0.012613 0.546122 0.811154 
-0.493140 0.136165 0.849190 
-0.292792 0.472207 -0.807840 
-0.110546 -0.025283 0.976322 
-0.982386 -0.182479 -0.003787 
0.617193 -0.501649 0.563955 
0.344110 0.654407 -0.622981 
-0.552078 0.370893 0.729326 
0.779160 -0.542717 0.185996 
-0.011192 0.830129 0.511671 
-0.292118 -0.666924 0.668109 
-0.990735 0.050727 -0.089023 
-0.569720 0.318735 0.743766 
-0.091767 0.295195 0.929845 
0.880281 0.014108 0.397853 
-0.230691 -0.376224 0.881102 
-0.063276 -0.889744 0.426451 
-0.029550 0.924573 -0.304295 
-0.548077 -0.561704 -0.601002 
-0.292192 -0.515538 0.790704 
-0.153859 -0.280292 0.933820 
0.206933 0.728892 -0.605454 
0.327188 0.113300 0.911267 
-0.808193 -0.534013 0.240007 
-0.024586 0.819188 -0.521200 
-0.690514 0.517437 0.479786 
0.815566 0.431956 -0.270668 
0.842554 0.431906 -0.153987 
0.117935 -0.068492 0.968784 
0.307203 -0.866083 -0.340474 
-0.846566 -0.517250 0.109584 
0.833692 0.403991 0.267345 
0.883335 0.370867 -0.081423 
-0.906350 0.405948 0.002214 
0.190929 0.158363 0.946054 
-0.134929 -0.891164 -0.400942 
-0.471691 0.856146 0.100746 
0.564675 0.572556 -0.532700 
0.926476 -0.220168 -0.157293 
-0.685295 0.708962 0.016699 
-0.742410 -0.354209 -0.557455 
-0.794429 0.139201 0.569805 
-0.004778 -0.263955 -0.942975 
-0.293639 -0.568778 -0.753659 
-0.457700 -0.714218 -0.513305 
-0.892689 0.424465 -0.037028 
-0.534785 -0.788524 -0.285494 
-0.912790 -0.202153 -0.338480 
0.673913 -0.269960 0.643218 
0.171362 0.552812 0.782645 
-0.593706 0.716063 0.318870 
0.170766 0.949463 -0.105194 
-0.240136 -0.613920 0.737178 
-0.338787 -0.893606 -0.260940 
-0.221892 0.924649 0.213402 
-0.818427 -0.242803 0.514817 
-0.096175 -0.612602 0.770771 
0.360887 -0.186466 0.885876 
0.420897 0.373839 0.792282 
-0.565861 0.389422 -0.705818 
0.184859 0.114606 -0.948137 
-0.073769 -0.947705 0.254780 
-0.199817 0.947050 -0.141446 
0.178657 -0.960539 0.146425 
0.344158 -0.699865 0.597798 
0.150393 -0.730519 -0.636016 
0.265558 0.219169 0.911525 
-0.274999 0.708460 -0.617424 
-0.184896 -0.549051 -0.793432 
-0.150167 -0.913287 0.341893 
-0.773621 -0.097252 -0.613944 
0.461440 0.840828 0.108744 
0.382454 -0.878705 -0.203418 
0.570202 0.753761 0.196347 
-0.717825 -0.015066 -0.685163 
0.138497 -0.865699 0.451910 
-0.397231 -0.858161 0.298344 
0.041668 -0.928464 -0.321356 
-0.048720 0.944519 -0.234720 
0.413048 0.223001 0.851361 
-0.424724 -0.833048 0.332114 
-0.977928 -0.114491 0.153740 
-0.621309 0.475437 0.602146 
-0.862392 -0.332835 0.368739 
0.224474 -0.099078 0.946312 
0.834813 -0.242242 0.426171 
0.241846 0.748135 -0.565922 
0.033818 -0.693429 0.698464 
0.117274 0.956323 -0.101057 
-0.976398 0.191758 0.042421 
0.125699 -0.224241 0.946331 
0.941995 0.150835 0.104718 
0.775834 -0.370310 -0.440633 
0.809368 0.113342 0.515959 
0.950573 0.013394 -0.158008 
0.498504 0.208433 -0.803391 
-0.988785 0.077790 -0.050999 
0.398337 0.873414 0.092734 
-0.127507 0.792235 0.556527 
-0.749431 -0.586299 -0.289871 
-0.249764 0.356122 -0.876824 
-0.191045 0.420824 0.864649 
0.069351 -0.265050 -0.940960 
-0.252330 0.095894 -0.942101 
0.344747 -0.917991 -0.011754 
-0.218730 -0.260379 -0.923838 
-0.727726 -0.627339 -0.271743 
0.831903 0.221678 0.432017 
-0.550778 -0.326150 -0.754060 
-0.943150 -0.127090 -0.289669 
0.051071 -0.192490 0.960161 
0.776350 -0.250165 0.522260 
-0.584231 -0.508996 -0.615498 
0.866805 0.362448 0.200234 
-0.220349 0.766526 0.567344 
-0.800309 0.471163 0.344938 
0.375411 -0.035782 0.898578 
0.620169 -0.509868 -0.548662 
0.120836 -0.490720 -0.839557 
-0.508567 -0.475703 -0.701911 
-0.023582 0.738674 0.638774 
-0.280250 -0.009904 0.941133 
-0.762791 -0.428258 -0.470742 
-0.373625 -0.021912 -0.909777 
-0.167542 0.522607 0.811661 
0.930525 0.197401 -0.144239 
0.485742 -0.314365 0.784688 
-0.770331 0.522352 0.337666 
0.830421 0.465767 -0.126192 
0.642651 -0.681468 -0.263147 
0.815330 0.456808 -0.224159 
0.554959 0.078972 0.791123 
0.185529 0.821203 0.484636 
-0.433614 0.871733 -0.081951 
-0.318981 -0.157524 0.921037 
-0.471914 -0.808028 0.334512 
0.345496 -0.782648 0.480225 
0.664054 0.541597 -0.435221 
0.778040 0.528841 0.208733 
-0.844109 0.098631 -0.516680 
-0.436439 -0.385924 -0.799510 
0.378538 0.406335 0.796912 
0.065669 0.833037 0.497025 
-0.623890 0.212181 -0.733266 
-0.097744 -0.905407 -0.380586 
-0.263609 0.031944 0.946271 
0.857946 -0.155031 0.419830 
0.267980 0.450711 0.817351 
-0.979924 0.105356 0.144713 
0.838749 -0.166041 -0.448524 
-0.659445 0.250989 -0.693068 
-0.614461 0.669759 -0.384111 
-0.670337 -0.224746 0.698987 
-0.963648 -0.061880 -0.249092 
0.497279 -0.671788 -0.502018 
0.127877 -0.973213 0.054073 
0.823655 -0.194825 0.469099 
-0.413839 -0.663119 -0.604983 
0.177461 0.051172 -0.954423 
0.580944 -0.385978 0.678585 
0.275764 -0.080605 -0.930296 
-0.288596 -0.906998 -0.274646 
-0.796551 0.081210 0.579769 
-0.115033 -0.970715 -0.143745 
-0.868158 -0.016479 0.490559 
0.252237 0.638548 -0.684920 
-0.046551 -0.716010 -0.672759 
-0.562979 0.658762 -0.460491 
0.773816 -0.038504 0.581141 
0.647983 0.135402 0.706971 
-0.180192 0.301009 0.915267 
0.063776 0.352802 0.908574 
-0.885678 -0.433879 0.149741 
0.892221 -0.331274 -0.179813 
-0.766797 -0.603343 0.204137 
-0.819191 0.508836 -0.198884 
0.105157 -0.750134 -0.622975 
0.636561 0.081763 0.723749 
-0.007118 -0.020463 0.981741 
-0.760637 0.485199 0.406557 
-0.505181 -0.409477 -0.749761 
0.639599 0.713239 -0.089504 
0.276007 -0.936091 0.095004 
-0.122562 0.701816 -0.670520 
-0.920682 0.024182 0.370124 
-0.690323 0.597377 -0.371529 
0.143354 0.755081 0.594286 
0.532604 -0.372900 0.726275 
-0.879977 -0.120251 0.446968 
0.488830 0.353083 -0.756515 
0.958694 -0.069304 0.021604 
0.142513 -0.901765 -0.368007 
0.724585 0.283298 0.569589 
0.733438 -0.220158 0.592951 
0.472519 0.176955 0.830101 
0.657878 0.219107 -0.673721 
0.756820 0.341621 0.494741 
0.106130 0.195802 0.955505 
-0.820051 0.542570 0.113365 
0.912894 0.297227 -0.021920 
-0.299726 -0.069514 -0.933012 
0.227103 -0.501701 -0.810815 
-0.136716 -0.053849 -0.965734 
0.693162 -0.307947 0.607553 
-0.142114 -0.787575 0.585218 
0.756454 0.031486 0.600949 
0.681679 0.494578 -0.470628 
0.536038 -0.817998 -0.034148 
-0.976870 0.147939 0.127834 
0.298261 0.915193 -0.079959 
-0.594006 -0.583677 0.546485 
0.692061 0.656803 -0.116566 
-0.920369 -0.060287 0.378350 
0.871291 0.188006 0.366742 
-0.323428 0.173785 -0.910456 
0.158570 0.305379 0.912103 
0.506381 -0.635520 -0.535059 
0.937387 0.190454 -0.084463 
0.173344 -0.909011 -0.333534 
0.942853 0.069108 -0.180909 
0.861385 0.425308 0.038889 
-0.200295 0.953294 -0.037572 
0.887330 0.194038 0.319609 
-0.372980 0.824540 -0.378586 
-0.325718 0.453031 0.807567 
-0.243173 -0.222928 -0.928394 
0.647413 -0.011918 0.721377 
0.509611 -0.184584 -0.803159 
-0.108959 -0.816719 -0.543535 
0.206906 -0.916924 0.287154 
0.421377 0.858727 0.137993 
0.060994 -0.447223 -0.870313 
0.778520 -0.522309 0.254138 
0.080083 0.895427 0.373428 
-0.788942 -0.451012 0.415116 
0.585859 0.232690 -0.733240 
-0.538696 -0.435758 0.715006 
0.458399 0.780768 -0.330502 
0.805795 0.513475 -0.106464 
0.537111 0.781746 0.182379 
0.268165 0.055714 0.935789 
0.649580 0.631262 0.327551 
0.250839 0.677383 -0.647060 
0.316444 0.861304 0.303276 
-0.815076 0.384382 -0.398005 
-0.702368 -0.650868 0.275268 
0.536882 -0.735810 -0.351572 
-0.760946 0.568852 -0.268408 
0.683544 -0.385636 -0.575831 
0.706418 -0.017237 -0.655816 
0.342932 -0.278547 -0.867157 
-0.117240 0.092217 -0.968969 
-0.548497 0.803274 -0.126193 
-0.085932 -0.983512 0.044912 
-0.994604 -0.034119 -0.022547 
-0.854247 -0.133429 0.491049 
-0.117172 0.076260 0.970477 
0.663193 0.681528 -0.153249 
0.268217 0.710486 -0.599456 
-0.822151 0.161178 -0.528713 
-0.588293 -0.752579 0.294180 
-0.841787 0.101131 0.513337 
-0.369825 -0.138670 -0.902357 
0.884200 -0.358573 0.165462 
-0.287976 0.069322 0.939456 
-0.440047 -0.579015 0.676235 
-0.078280 0.249605 0.946609 
-0.102575 0.378063 0.897319 
0.390062 -0.836073 -0.324000 
-0.914716 0.366350 0.109134 
-0.187463 0.083416 0.959404 
-0.014324 0.014959 -0.978373 
0.316561 0.522883 -0.748159 
-0.513484 -0.675141 0.519742 
0.001260 -0.475940 -0.856042 
-0.705390 -0.665803 -0.226859 
-0.809062 0.542727 0.170530 
-0.754224 0.438731 -0.453327 
0.945215 -0.045830 0.191380 
-0.951908 -0.293521 -0.015998 
0.505167 -0.312395 -0.768467 
0.086593 0.955001 -0.134783 
-0.713411 -0.211958 0.655534 
0.716896 0.046970 0.652181 
0.231502 0.894688 0.286841 
-0.188206 0.675515 0.680843 
0.859256 0.162623 -0.407543 
0.893697 -0.269569 0.239703 
0.226079 0.669556 0.663416 
-0.930365 -0.192390 -0.291348 
-0.841866 -0.509901 0.165877 
-0.915476 -0.397568 -0.071606 
-0.745419 -0.539919 0.383869 
0.447458 0.849747 -0.052803 
-0.249727 0.288376 -0.900717 
-0.316974 -0.808728 -0.474064 
-0.905065 0.239263 0.339219 
-0.978649 -0.164631 0.112687 
-0.269196 -0.407655 -0.855364 
-0.456002 -0.711155 0.523392 
0.481713 0.742947 0.386538 
-0.879607 0.201310 -0.410483 
-0.986456 -0.100353 0.096639 
0.080283 -0.903881 -0.374982 
0.780740 -0.571867 -0.055597 
-0.797012 -0.062557 -0.591467 
-0.004875 -0.984056 0.049164 
0.187395 -0.815016 0.517604 
-0.413747 0.517159 -0.728767 
-0.612687 0.759953 -0.116672 
-0.366759 -0.141253 0.907622 
0.211738 0.734130 0.600454 
-0.772877 -0.057941 0.623232 
-0.880001 -0.044213 -0.463714 
0.652246 -0.214975 0.686457 
0.849650 0.084578 0.449459 
0.888597 -0.269418 -0.256585 
0.241793 0.924624 0.151950 
-0.726117 -0.104447 0.669840 
-0.390254 0.865316 0.232619 
-0.226365 0.948897 -0.080009 
-0.165094 0.793812 -0.545787 
0.321657 -0.271874 0.884056 
-0.505495 -0.346101 -0.775887 
0.524341 -0.345239 -0.743634 
-0.984691 -0.150100 0.041245 
0.040853 0.911639 0.332280 
0.345042 -0.539362 -0.741525 
-0.323459 -0.935266 0.068803 
0.073046 -0.268932 0.942450 
0.896748 0.345276 -0.018305 
0.697810 -0.410709 -0.534872 
-0.461871 0.762746 0.409776 
0.728405 -0.549475 0.332465 
-0.346005 0.888094 -0.225486 
0.861867 -0.416923 0.134655 
-0.901596 -0.380959 -0.190804 
-0.409521 0.331266 -0.827728 
-0.722269 -0.596587 -0.331614 
-0.084240 0.737164 0.632333 
-0.304152 0.802141 0.471296 
-0.622266 -0.761101 -0.163616 
0.257329 -0.136606 0.933376 
-0.883647 0.073926 -0.449509 
0.495238 0.569321 -0.602453 
-0.109449 -0.981330 -0.051435 
-0.639666 0.615816 -0.426935 
0.450777 -0.501154 -0.698764 
0.278621 -0.237838 -0.902650 
-0.479003 -0.395957 0.769476 
-0.539329 0.453848 -0.683676 
0.068197 0.299206 0.926907 
0.050205 -0.387186 0.903266 
-0.054768 0.858403 -0.453126 
0.765890 -0.331564 -0.491924 
-0.694014 -0.108763 0.706959 
-0.302358 0.717274 0.593972 
-0.012057 -0.980712 -0.104730 
0.342775 0.453341 -0.784474 
-0.185446 0.285996 -0.917024 
0.962277 0.013215 0.015921 
-0.253280 0.937717 -0.119532 
-0.511451 0.048614 0.842700 
0.143229 -0.055351 -0.964265 
0.530145 0.573739 -0.567771 
-0.692412 -0.066299 -0.704564 
0.724732 0.429862 -0.467961 
-0.892266 0.328834 0.290419 
-0.487524 0.578925 -0.621889 
0.781160 0.386946 0.402058 
-0.690760 -0.636213 0.338765 
-0.107074 0.803384 -0.540358 
0.639548 -0.402849 0.610324 
-0.735476 0.006807 0.666063 
-0.794393 -0.292753 -0.521716 
0.044087 -0.314173 0.929753 
-0.385890 -0.803843 0.433554 
0.360660 0.892715 0.071783 
-0.974549 0.182368 -0.053313 
-0.529789 0.824207 0.067089 
0.033088 0.230581 0.954487 
0.897260 -0.069140 0.346379 
0.140820 0.472595 -0.837861 
0.460225 0.669719 0.522343 
-0.919621 0.297201 -0.224922 
-0.971173 -0.228476 -0.013048 
-0.430974 -0.786703 0.426008 
-0.992744 -0.032324 -0.074826 
-0.245812 -0.413103 0.860822 
-0.045108 -0.244412 -0.947037 
-0.196878 -0.347046 -0.899545 
-0.866804 0.428833 0.203848 
-0.494950 0.716493 0.454232 
-0.587442 0.723612 -0.316219 
0.627860 -0.228212 -0.702411 
0.865053 -0.096030 0.419138 
0.456002 -0.782205 0.370119 
-0.462183 -0.266033 -0.833906 
0.106551 0.009293 -0.968350 
-0.644044 -0.034757 0.754518 
-0.686030 -0.303735 -0.649120 
-0.370506 0.402556 -0.814130 
0.876809 0.150895 -0.367999 
0.188017 -0.274152 0.922063 
-0.823103 -0.082925 -0.548342 
-0.091660 0.503430 0.833118 
0.818624 0.364714 0.351699 
0.290212 -0.714204 0.607023 
0.785821 -0.286418 -0.487844 
0.569943 -0.605685 -0.503667 
0.061372 -0.532730 0.824954 
-0.217919 -0.001144 -0.955837 
0.354001 -0.295604 0.862623 
-0.823551 0.194573 0.513578 
-0.377597 -0.451210 0.797370 
-0.114084 -0.907599 0.375077 
0.329509 0.065940 0.916292 
-0.971152 -0.101327 -0.198338 
0.336642 -0.909429 0.166250 
0.090789 -0.359597 0.909807 
-0.068737 0.054672 -0.975541 
0.880190 0.055998 -0.389414 
0.178827 -0.961062 -0.113774 
0.389803 -0.526125 -0.722781 
-0.424610 -0.036312 0.894393 
0.083112 0.427896 -0.872230 
-0.277489 0.842824 0.414095 
0.253531 0.621836 0.700272 
0.302840 -0.364275 -0.850139 
-0.853364 -0.056206 -0.504517 
-0.225176 0.941259 0.122115 
0.027340 -0.904656 0.391291 
0.717161 -0.336603 -0.558970 
-0.073884 0.108536 -0.969473 
-0.325005 -0.918586 0.188245 
0.636028 -0.627665 -0.390564 
-0.669846 0.502689 0.522283 
0.440365 0.295630 -0.809497 
0.172701 -0.698883 -0.666145 
-0.509332 -0.601408 0.604253 
0.525518 0.446157 -0.678482 
-0.065328 -0.730685 0.658461 
-0.286556 -0.937315 0.143452 
0.154874 -0.006184 -0.960694 
-0.547487 -0.266411 0.783488 
0.570866 0.336818 0.700868 
0.827528 0.292180 -0.394373 
-0.033261 0.968642 -0.095743 
-0.439718 -0.804235 0.382681 
0.862521 -0.326728 -0.297951 
0.628600 0.609084 -0.400617 
0.837629 0.470158 0.033624 
0.050036 0.969101 -0.030426 
0.497625 0.496713 0.662643 
-0.860344 -0.080336 0.495814 
-0.441676 0.647308 -0.591309 
-0.674946 0.576440 -0.429287 
-0.344543 -0.915610 -0.164984 
-0.967871 0.226881 -0.045828 
-0.900629 0.017011 0.420425 
0.672787 -0.354376 0.603211 
0.322645 0.016175 0.921753 
-0.893686 -0.431777 -0.102645 
0.950412 -0.090353 -0.130975 
0.453114 -0.046340 -0.857044 
-0.586370 -0.477811 0.640099 
-0.484878 -0.739645 -0.448802 
-0.431442 0.877774 0.023698 
0.448312 0.337692 0.792007 
-0.316419 0.844962 0.377821 
0.651745 -0.719164 0.080148 
0.252261 -0.703793 0.638741 
0.562296 0.213496 0.759098 
-0.850537 0.445333 0.247443 
-0.078810 -0.970819 -0.174214 
0.037731 0.181285 0.962317 
0.142559 -0.795611 -0.555634 
-0.370224 0.288682 -0.860515 
0.673293 0.072144 0.693095 
-0.700102 0.385137 -0.580122 
0.523688 0.057311 0.815439 
0.260161 0.267981 0.899616 
-0.576637 -0.786025 -0.199695 
0.234376 0.106123 0.941436 
0.780997 -0.115713 -0.554523 
0.032487 0.743113 -0.623893 
0.914868 -0.277219 0.136314 
-0.856976 -0.480191 -0.172545 
-0.477002 0.464744 -0.721380 
-0.825742 0.203397 -0.507628 
0.589098 -0.714096 0.298788 
0.089586 -0.686463 0.697323 
0.118582 -0.115585 0.964670 
0.883024 -0.321919 -0.224836 
0.640444 0.188848 0.699643 
0.369273 0.045752 0.900734 
-0.653068 0.699385 -0.235852 
-0.294787 -0.893055 -0.320093 
-0.636669 -0.760342 0.077394 
-0.058766 0.054251 0.980442 
-0.935631 0.307040 -0.097896 
-0.286978 -0.491833 -0.806671 
0.327232 0.776776 0.475878 
-0.122447 -0.192285 0.959130 
0.337145 0.341996 -0.842289 
-0.486444 -0.010370 -0.857390 
-0.363783 0.659763 0.627934 
0.537112 0.483291 0.643315 
0.375110 0.802977 0.389205 
-0.474526 -0.670596 0.556864 
-0.702990 -0.704346 0.008571 
0.500322 0.664141 -0.489461 
-0.477367 -0.019153 0.865602 
-0.769163 -0.159114 0.608855 
-0.330297 0.902805 -0.165544 
-0.370647 -0.920214 -0.022211 
-0.831407 0.290901 0.456771 
0.354775 0.897903 0.021796 
0.810635 -0.528463 -0.066661 
-0.565957 0.676906 0.433688 
0.798567 -0.119369 0.529663 
-0.503232 0.750900 0.389362 
0.938240 0.129588 0.158513 
0.302493 0.787463 -0.474331 
0.553169 0.030299 -0.791003 
0.234823 0.336069 -0.878110 
-0.513471 0.388363 0.747093 
-0.718369 0.677550 0.008879 
0.745609 0.530352 -0.298302 
0.303833 -0.906109 0.222381 
0.100545 0.134343 0.963624 
-0.109530 0.656217 -0.712923 
-0.152610 0.458211 0.852579 
0.684421 0.132735 0.672747 
-0.340130 0.408972 0.828006 
0.725249 -0.644496 -0.033150 
0.893803 0.082557 -0.349527 
0.747710 0.576328 0.181547 
0.955642 0.079037 -0.062423 
0.826113 -0.499930 0.107103 
-0.128184 -0.972980 0.137865 
0.002873 0.969766 -0.068661 
-0.137313 0.755583 0.602714 
-0.589895 -0.323528 -0.727350 
-0.881488 -0.354374 -0.297662 
0.178813 -0.928491 -0.255356 
-0.230457 0.721303 -0.621386 
-0.070671 0.823060 -0.511073 
0.697985 0.006711 0.672114 
-0.919863 -0.343208 0.180578 
0.253830 -0.899286 -0.312474 
-0.280084 -0.946180 0.040590 
-0.367998 -0.598334 -0.694864 
0.031954 -0.882694 -0.431867 
0.077541 0.468613 -0.849639 
-0.463478 -0.874036 -0.082539 
0.175895 0.954139 -0.047741 
-0.751495 0.637695 0.001989 
0.615498 0.688698 0.265274 
0.487362 0.813489 0.170174 
0.116281 0.901632 0.341414 
0.177572 0.160635 -0.942504 
0.238155 -0.893755 0.336024 
0.205372 -0.585776 -0.754515 
-0.792489 -0.087137 0.594651 
-0.289703 0.126345 -0.928341 
0.381910 0.604867 0.658486 
-0.151903 0.960819 -0.001055 
0.496268 -0.832343 0.141770 
0.282331 0.321348 -0.870043 
0.596437 0.719511 -0.239344 
-0.184545 0.162524 -0.948239 
-0.942899 -0.245987 0.218821 
0.073067 0.440661 0.869620 
0.206347 -0.542605 0.790900 
-0.621260 -0.423300 0.650439 
0.960034 0.034395 0.062896 
0.924067 0.112727 -0.246347 
-0.068933 -0.743807 -0.642122 
0.147748 -0.946608 -0.209161 
-0.541969 0.205484 0.800337 
0.445844 0.837484 0.172716 
0.321276 -0.658676 -0.646833 
-0.888697 -0.290803 -0.350764 
-0.967380 -0.172938 0.160574 
0.447516 0.035039 -0.860212 
-0.977045 -0.155480 -0.121778 
0.614878 0.523821 0.527409 
-0.386164 -0.705683 -0.577908 
-0.516850 -0.643019 -0.556236 
0.402047 -0.718875 -0.526754 
0.037455 0.530230 0.819033 
0.755179 -0.564489 0.222560 
0.764032 -0.337790 0.492361 
-0.466358 0.555744 -0.657406 
-0.136381 -0.150352 -0.960147 
-0.410875 -0.584966 -0.685068 
-0.090527 -0.042847 -0.973084 
-0.413884 0.378630 -0.804074 
-0.176049 -0.708074 -0.663957 
0.347867 -0.339569 -0.844656 
-0.475828 -0.149717 -0.851428 
0.793013 -0.317092 -0.451273 
0.319381 0.094718 -0.913512 
0.043725 -0.431214 0.883137 
0.734243 0.187396 -0.596286 
-0.013250 0.214070 -0.951720 
0.402582 0.379101 -0.796337 
0.610624 -0.760492 0.034220 
-0.705425 -0.498055 -0.493806 
-0.286350 0.930425 -0.089789 
-0.819792 -0.436620 -0.368522 
-0.187411 -0.965547 0.046958 
-0.608047 0.621074 -0.459894 
0.851446 0.184439 0.413120 
0.758378 0.204580 -0.560493 
0.326210 0.282251 -0.870764 
-0.634759 0.011522 0.763218 
-0.432899 0.874917 -0.022754 
-0.052758 -0.983477 -0.072146 
0.847075 0.217062 -0.400752 
0.131981 0.954617 0.109125 
-0.908665 -0.152952 -0.374461 
-0.767839 0.606599 -0.123489 
0.017627 -0.432812 -0.879373 
0.617779 0.728374 -0.129728 
-0.923986 0.222794 0.285409 
-0.839612 0.506308 -0.122365 
0.400359 0.849076 0.225364 
-0.213900 0.931465 -0.203881 
-0.489277 -0.525905 -0.681723 
-0.075629 0.109606 0.972545 
-0.168446 0.934450 0.225560 
0.187967 -0.320612 0.905289 
-0.287062 0.332597 0.878980 
-0.971522 0.084150 0.222817 
0.647654 0.581549 0.414141 
0.289102 0.841917 0.371928 
0.071912 -0.869750 -0.453955 
0.848512 -0.452660 -0.094270 
-0.121835 0.185468 -0.953883 
-0.177825 -0.610207 -0.751291 
-0.253339 -0.594560 -0.746321 
0.315274 -0.684125 0.629505 
0.219264 0.045882 0.950785 
0.904236 0.326341 -0.069857 
0.895272 0.144007 -0.323378 
-0.358157 0.038878 -0.915069 
0.052657 0.160032 -0.961978 
0.648228 0.105838 -0.712121 
0.066473 0.939867 0.236181 
-0.675414 0.013022 0.724983 
-0.044740 -0.985916 0.024997 
0.112026 -0.716267 -0.662382 
-0.803940 -0.016581 0.590205 
-0.756817 -0.270396 0.587180 
-0.102316 0.237324 -0.945790 
0.019843 0.134942 0.970041 
0.151481 0.056786 0.966564 
0.766362 0.159748 -0.558310 
-0.198193 -0.605688 0.754594 
0.581212 0.391681 0.664752 
-0.293208 0.360373 -0.859008 
0.327654 -0.809388 0.444838 
-0.303964 0.926009 -0.035649 
-0.323877 -0.109625 0.925034 
0.752012 0.577341 -0.168922 
0.942867 0.004806 0.202059 
0.847325 -0.199354 0.421978 
0.699024 0.333878 0.575588 
-0.287053 0.427286 0.834503 
-0.816478 0.531561 -0.151965 
-0.365754 -0.069191 0.913014 
-0.316158 0.088319 -0.924861 
0.296554 0.666678 -0.634677 
-0.082220 0.926881 -0.284940 
-0.605462 -0.690531 -0.385368 
-0.648350 0.716988 -0.193576 
-0.472170 0.118754 -0.854223 
-0.674661 0.596902 0.402101 
-0.079449 -0.960865 0.206083 
-0.520425 0.827780 0.117409 
-0.952220 -0.298032 0.028709 
0.420870 -0.810913 0.349346 
-0.624932 -0.499443 0.586151 
0.317832 -0.056434 0.920741 
-0.329530 -0.904319 0.232563 
0.005598 -0.068826 0.979386 
0.790596 0.296523 -0.460928 
0.516011 -0.416719 0.715564 
0.860644 -0.420019 -0.135420 
-0.490748 0.847180 0.045315 
-0.830664 0.144257 0.517544 
0.295601 -0.650171 0.669400 
0.930210 0.239639 0.001422 
-0.275001 0.749295 0.564544 
-0.169709 -0.856828 -0.462878 
0.690109 -0.170759 -0.655152 
0.097191 -0.307733 0.926908 
-0.389152 0.890338 -0.066230 
0.539642 0.611831 -0.514978 
-0.614047 0.746468 -0.176502 
0.096210 0.251239 -0.936315 
-0.584550 0.615473 0.500023 
-0.641569 -0.681936 -0.332143 
0.182238 -0.653995 0.707874 
-0.938151 0.224025 0.227711 
0.364288 0.750779 0.491821 
-0.668415 0.505229 -0.521449 
-0.522212 -0.231272 -0.805848 
0.570736 -0.547386 -0.566584 
0.555216 0.786387 -0.006277 
0.024603 0.952152 0.196259 
-0.963174 0.228193 0.082678 
-0.496954 0.829038 0.179317 
0.534529 -0.030320 -0.806516 
0.159574 -0.822485 -0.512409 
0.696853 -0.560428 0.381243 
0.622798 -0.550660 0.502435 
-0.677743 -0.672976 -0.277302 
0.144460 0.145900 0.955941 
-0.960292 0.208429 0.143406 
0.173026 -0.506337 0.821961 
0.485034 0.265509 -0.794506 
0.942194 -0.201317 0.013672 
0.949235 -0.148504 -0.071101 
0.667307 -0.457481 -0.534896 
-0.544438 -0.475546 0.681477 
-0.128878 -0.119313 0.969596 
-0.028382 0.122884 -0.967533 
0.626087 -0.049005 0.741911 
0.377890 0.521904 0.724338 
0.929700 -0.220325 0.141758 
0.736458 -0.569612 0.285508 
-0.585957 0.771605 -0.151152 
-0.153813 0.214865 0.946838 
-0.007878 0.958667 0.150386 
-0.494004 -0.119947 0.849498 
0.069053 -0.977916 0.129210 
0.164224 0.283166 -0.916320 
-0.367902 0.895676 -0.115762 
0.038930 0.858321 0.451902 
-0.231890 -0.203058 0.936649 
0.082344 0.917697 0.305394 
0.081808 0.596214 -0.764503 
0.645285 -0.465006 0.561933 
0.564920 -0.164040 0.770437 
0.339010 -0.579555 -0.712113 
-0.202694 0.761989 -0.578376 
-0.732855 -0.665751 0.118494 
-0.473868 -0.165025 0.852898 
-0.326095 -0.130865 -0.917423 
0.573697 0.446070 -0.637380 
-0.973571 0.167260 -0.104327 
0.438894 0.087178 -0.861337 
0.399211 0.086238 -0.882155 
0.079452 -0.813121 0.550098 
-0.025145 -0.121214 0.972064 
-0.281890 -0.654051 -0.684309 
0.583225 0.739877 -0.201807 
0.038392 0.963402 -0.115816 
-0.385836 0.788073 -0.433784 
0.280856 -0.884797 0.319428 
-0.172374 -0.013033 -0.962372 
-0.028528 0.125028 0.972341 
-0.259007 0.237280 0.917303 
0.878947 0.386807 -0.001243 
0.223159 -0.104522 -0.944335 
0.506861 0.781467 -0.243823 
0.936378 -0.138505 0.200387 
-0.238120 0.946812 0.009435 
0.531383 0.799143 -0.086060 
-0.303809 -0.069368 0.933247 
0.411683 -0.178950 0.866009 
-0.808243 -0.556755 -0.179346 
0.921369 0.253548 0.081159 
-0.567691 -0.815189 0.049660 
-0.933587 0.271598 0.201570 
-0.226481 0.275569 0.912865 
-0.038352 -0.703295 0.691889 
0.283054 -0.385855 0.851965 
0.041940 -0.982434 -0.085551 
-0.088270 -0.490429 0.849222 
-0.622831 0.732362 0.209824 
-0.105713 0.032172 0.974325 
-0.744842 0.644951 0.053037 
-0.820484 -0.052458 0.561067 
-0.814559 0.312012 -0.464865 
-0.855012 0.266050 0.426062 
0.659573 -0.193699 -0.680026 
0.045643 -0.542547 -0.816284 
0.720439 -0.646151 0.045359 
0.558126 -0.801642 -0.070294 
-0.278390 0.937398 0.072019 
-0.003579 0.499807 0.838766 
0.878044 -0.332114 0.231471 
0.256139 -0.842589 -0.432095 
-0.764217 0.171450 0.603269 
-0.167368 0.032427 -0.963252 
-0.796491 -0.293396 0.521561 
0.346645 0.795992 0.425679 
0.022587 -0.903856 -0.385956 
0.077900 0.206953 -0.949529 
-0.925853 -0.155288 -0.324675 
-0.336698 -0.827034 -0.428089 
0.376005 0.666230 -0.590667 
-0.496522 0.493719 -0.686938 
0.155337 0.612773 -0.734905 
-0.921444 -0.360197 0.135411 
-0.874574 0.450995 -0.078047 
-0.185784 -0.966815 -0.001033 
-0.456993 0.518031 -0.697532 
0.614493 0.304819 0.679955 
0.858559 -0.354173 0.271028 
-0.634792 0.172273 0.741996 
0.271236 -0.920941 -0.193037 
0.107063 -0.548085 0.811858 
-0.644525 -0.456514 0.602037 
0.695942 0.388300 0.546294 
-0.718123 0.417360 0.542305 
0.633322 0.620824 0.377148 
0.830572 -0.011216 0.491829 
0.284078 0.906164 -0.178977 
0.298117 -0.895544 0.270768 
0.109444 0.625112 -0.735126 
-0.020170 -0.740200 -0.645651 
0.538044 0.322937 -0.738201 
-0.237181 0.087133 0.951636 
0.811333 0.406295 0.321384 
0.189605 0.764559 -0.568808 
0.136759 -0.876869 -0.424583 
-0.366711 -0.924830 0.049299 
0.761161 0.095672 0.587474 
-0.666408 0.700282 0.185849 
0.302493 -0.815690 -0.447964 
0.901835 -0.021338 -0.337977 
-0.511567 0.803918 -0.225076 
0.028084 0.622734 0.752024 
0.643403 0.428085 -0.574241 
-0.089345 -0.628033 -0.751405 
0.234219 0.487107 0.806247 
0.388818 0.131389 0.879443 
0.670522 -0.401731 0.575474 
-0.762918 -0.235423 -0.594867 
-0.613198 0.766043 0.033707 
-0.361329 -0.490902 0.779629 
-0.169978 -0.753640 0.618205 
-0.027106 -0.646879 -0.740559 
-0.077812 -0.383079 -0.902753 
-0.142228 0.948829 0.178619 
-0.570972 -0.296537 0.755316 
0.012877 -0.571355 -0.798235 
-0.794498 0.546670 -0.203035 
-0.834097 -0.200198 -0.500592 
-0.485195 0.072216 -0.856566 
-0.226680 -0.426303 -0.860972 
-0.307827 -0.322876 -0.880344 
-0.918059 0.356966 -0.086968 
0.502498 0.623500 -0.538247 
-0.687094 -0.449492 0.562976 
0.152283 -0.441242 0.863527 
0.223680 -0.051817 0.948009 
0.316364 -0.860558 0.345955 
0.003794 0.167336 -0.960210 
0.829899 0.081211 0.491057 
0.901960 0.161330 0.289958 
-0.015564 -0.895323 0.416137 
0.092368 0.658607 -0.710749 
0.939464 -0.220634 0.075484 
0.674288 0.333895 -0.601455 
-0.292389 -0.405688 0.851044 
-0.151711 -0.415360 0.881308 
0.151096 -0.921346 -0.296322 
0.070441 0.964081 -0.081294 
-0.647112 0.464771 -0.580057 
-0.747981 -0.640398 0.153969 
0.839690 -0.259434 -0.405214 
-0.312975 0.907960 0.172773 
0.722310 0.303612 -0.563052 
-0.338655 -0.268258 -0.888172 
-0.787129 0.326373 -0.498232 
-0.046354 -0.982252 0.072694 
-0.133343 0.889537 -0.382057 
-0.990702 0.085010 0.045551 
-0.904262 0.296750 -0.284895 
-0.991529 -0.078755 0.006369 
-0.323465 -0.830951 0.433599 
0.112036 0.322257 0.913204 
0.954811 -0.020498 0.131839 
0.385313 -0.788601 0.443392 
-0.040933 0.887305 0.394235 
-0.736748 0.062513 -0.658564 
0.625084 -0.443809 0.596887 
-0.441174 -0.494561 0.739412 
0.444939 -0.861609 -0.117503 
-0.590536 -0.801639 0.006246 
-0.017035 0.846119 -0.476684 
0.165096 0.802638 -0.517281 
0.383081 0.258515 0.854035 
-0.687356 0.669617 0.222104 
0.102409 0.894757 -0.368437 
-0.330560 -0.761139 -0.539313 
0.027225 -0.233955 -0.951603 
0.290375 -0.164442 0.917304 
-0.834392 -0.505688 -0.201984 
-0.124606 -0.413295 -0.882537 
0.867931 -0.218617 -0.358075 
-0.174384 -0.122689 0.962378 
0.495761 0.307776 -0.771804 
0.842720 0.350052 0.308456 
0.964880 -0.010046 0.055266 
-0.470375 0.541364 0.678218 
-0.278419 0.285145 0.896614 
-0.105035 0.945542 0.203488 
-0.015976 0.070934 -0.973763 
0.548161 0.177260 -0.776491 
-0.209019 -0.964413 -0.041356 
0.469132 0.797233 -0.273639 
0.512099 -0.457664 -0.686466 
-0.523741 -0.053510 -0.833403 
0.888382 -0.054029 -0.366289 
0.714572 0.451836 0.464260 
-0.929286 0.239483 -0.259673 
0.361837 0.299751 -0.847947 
-0.958758 -0.107755 -0.251967 
-0.709978 -0.467323 0.521416 
0.071827 -0.216497 -0.954351 
0.461135 0.379675 0.766895 
-0.016596 0.077914 0.979204 
-0.108251 0.466333 0.852535 
-0.489492 0.812974 0.254424 
-0.373760 0.886684 -0.162239 
0.289433 -0.521421 -0.775518 
-0.878399 0.249613 -0.387802 
0.498606 0.460707 0.690831 
-0.091502 -0.571862 0.799481 
-0.222104 0.253657 -0.920708 
-0.871452 -0.478526 0.084722 
-0.520882 0.102109 0.834835 
0.342380 0.901589 -0.083635 
-0.922394 -0.113714 -0.351162 
0.358238 -0.808251 -0.420051 
-0.082827 0.966727 -0.066816 
-0.920039 0.118606 -0.356976 
-0.362737 -0.800923 -0.455409 
0.111081 -0.967214 0.157366 
-0.327115 0.382913 -0.839375 
-0.161391 -0.962102 0.165852 
-0.989058 0.090336 -0.004875 
0.134646 0.085744 -0.960762 
0.443656 0.682866 -0.521015 
-0.930505 -0.212763 0.290069 
0.034361 0.473960 0.853345 
0.193058 0.515647 0.800767 
-0.776733 -0.623770 -0.057848 
-0.481523 -0.861812 0.109442 
0.192221 -0.862711 0.433673 
0.246176 -0.584397 0.751575 
0.944483 0.141801 -0.105438 
0.401175 0.861526 0.179504 
0.846954 0.409748 0.195849 
-0.032807 -0.567726 -0.802299 
-0.119079 -0.360669 -0.906436 
-0.970257 -0.225228 -0.057699 
0.424230 -0.856558 -0.208073 
0.888317 -0.360466 0.115859 
0.215303 -0.273565 -0.912504 
0.738584 0.076836 0.622474 
-0.119065 -0.955400 -0.220787 
0.088461 0.956565 0.123553 
-0.728435 0.556011 -0.372064 
0.133350 -0.330529 0.913164 
0.678340 0.008309 -0.689237 
0.354499 -0.859970 -0.303673 
0.114941 0.962772 -0.050673 
0.582054 -0.218795 0.746483 
0.557724 -0.454060 0.657986 
0.204745 0.702754 0.635800 
-0.491942 -0.858898 0.054241 
-0.992358 -0.057238 0.052283 
-0.880535 -0.292886 0.355995 
0.936658 0.209542 0.051500 
-0.741474 -0.471833 -0.464551 
-0.067869 0.914056 -0.326514 
-0.424494 0.844093 0.261709 
0.240573 -0.401894 0.860260 
0.621166 -0.235920 0.712215 
0.487253 0.827343 -0.057257 
-0.087323 0.205569 0.957922 
-0.726844 0.484879 0.467522 
