-0.062232 0.965919 0.098096 
-0.316536 0.648191 0.664059 
0.012737 -0.561581 -0.805685 
-0.283025 0.750787 -0.558075 
0.380662 -0.260611 -0.858231 
0.065555 0.963988 0.085547 
0.108734 -0.853078 -0.484270 
0.799894 0.388363 0.363692 
-0.258841 0.893912 -0.293404 
0.694147 0.489712 0.460632 
-0.506327 0.830692 0.150401 
0.019402 -0.859045 0.482733 
-0.641554 -0.661076 -0.373136 
0.898436 -0.281376 -0.208679 
0.655560 0.486049 -0.516434 
-0.655878 -0.604958 0.438421 
-0.552877 0.373188 -0.724482 
0.906455 -0.033007 -0.320159 
-0.992036 -0.023192 -0.084066 
0.043594 0.500894 0.838065 
0.654868 0.667763 0.224325 
0.196265 0.473713 -0.822686 
-0.169577 -0.941530 -0.239388 
0.922214 -0.149484 -0.237960 
0.684226 0.032811 -0.683695 
-0.618294 0.064130 0.772387 
-0.396877 -0.552191 0.720865 
0.239650 -0.558835 -0.763606 
-0.793740 0.270707 -0.525766 
0.263071 0.814282 -0.454955 
0.535891 -0.403481 0.707244 
-0.095239 -0.500530 -0.840686 
-0.082524 0.904823 -0.348996 
-0.562421 0.000226 -0.812607 
0.447400 0.556500 0.652900 
0.009555 0.947899 0.229830 
0.365223 0.837036 -0.315229 
-0.542165 0.818975 0.011304 
-0.881745 -0.306051 0.342676 
0.843935 0.253875 0.386330 
-0.107430 -0.705819 -0.677950 
0.355529 -0.397851 0.819035 
-0.609782 0.677192 -0.377049 
-0.194976 -0.949224 0.201568 
-0.843521 0.008980 0.526510 
0.539146 -0.403171 -0.703761 
-0.142787 0.513176 0.822676 
0.235023 -0.463802 0.829824 
0.734812 0.450271 -0.423193 
0.438373 0.570374 -0.645492 
0.016644 0.125090 0.971669 
0.038021 0.813694 -0.530160 
0.216554 0.388868 0.867201 
-0.487213 -0.856005 0.141105 
-0.953281 -0.278892 -0.085925 
-0.295485 -0.921993 -0.199317 
0.228296 0.135339 0.940792 
0.315411 -0.769392 0.515365 
0.825042 -0.287673 0.417882 
-0.550080 0.130449 -0.803542 
-0.914093 -0.153034 0.369361 
0.318868 0.527613 0.748060 
-0.033678 -0.296000 0.936697 
-0.588185 -0.799839 0.065162 
0.275432 -0.199488 -0.913082 
-0.849113 0.430747 0.291889 
-0.224140 0.597348 0.743143 
-0.606312 -0.763772 0.194378 
-0.261274 -0.896169 -0.330637 
0.760466 0.322851 -0.492492 
-0.204562 0.298153 -0.909679 
-0.719343 -0.529704 -0.437478 
-0.305192 0.838209 0.402584 
-0.234833 0.932219 -0.174400 
0.373406 0.474391 -0.755278 
-0.847969 -0.236878 -0.460044 
0.677752 -0.371220 -0.588435 
-0.642282 -0.531263 0.543920 
0.864651 -0.116055 -0.409417 
-0.237891 0.483667 -0.818068 
0.929118 -0.220340 0.144613 
-0.053173 0.314446 -0.920755 
-0.734592 -0.593114 -0.312549 
0.305695 0.584648 -0.709119 
-0.848251 -0.162220 0.492905 
0.138518 0.859684 -0.426064 
-0.435825 0.792561 0.383760 
-0.023090 -0.033706 0.981043 
-0.117882 0.459307 -0.854010 
0.766454 -0.198061 0.552891 
-0.151649 0.810954 -0.524957 
0.237756 -0.049513 -0.945636 
0.064338 0.725464 0.648612 
-0.409879 0.857614 -0.225595 
0.852898 0.388237 0.214416 
-0.873955 -0.409561 0.243111 
-0.919582 -0.105774 -0.360033 
0.634084 -0.651719 -0.350989 
-0.289530 -0.520931 -0.786616 
0.541933 -0.281745 -0.754181 
-0.991663 -0.069460 0.036466 
0.192602 0.501820 0.809569 
0.496346 0.118372 -0.822611 
0.809289 -0.412553 -0.327292 
0.067670 0.914304 -0.321424 
0.264271 0.855560 0.351956 
-0.839728 -0.526756 0.120401 
-0.271065 0.327678 0.885505 
-0.759834 -0.354563 0.536831 
0.804818 -0.501223 -0.196867 
0.605665 0.338998 0.671782 
0.227375 -0.953436 0.076156 
0.764161 0.065737 -0.581302 
-0.846092 0.480153 0.165024 
-0.214559 -0.729987 0.634286 
0.740195 -0.324813 0.539509 
-0.414432 -0.655299 -0.612885 
-0.640861 -0.697729 0.313433 
0.501022 0.817461 0.108826 
-0.510421 -0.571217 0.628956 
-0.099436 -0.890582 0.416269 
-0.442472 -0.303374 -0.829622 
-0.802293 0.512217 -0.259153 
-0.628313 0.192068 0.740822 
0.880894 -0.179930 0.356710 
0.683227 -0.224640 -0.644932 
-0.079532 0.362203 0.906427 
0.374981 0.133931 -0.886620 
0.066107 0.488868 -0.839629 
0.423046 -0.877095 0.098294 
0.589956 -0.732240 -0.258820 
-0.344472 0.665019 -0.633401 
-0.552260 0.373226 0.727921 
0.951509 -0.126485 0.025721 
-0.806114 -0.485599 -0.322093 
-0.352384 0.534333 0.746583 
-0.400043 0.387984 -0.806501 
-0.836475 0.208846 0.491481 
-0.572429 -0.604314 -0.536897 
0.402912 -0.488958 0.743600 
0.074148 -0.917061 0.346806 
-0.724437 0.535403 0.407149 
0.532645 -0.819275 0.032330 
0.704528 0.332994 0.569661 
-0.364405 0.867972 0.267852 
-0.334062 0.737925 0.551304 
0.288994 0.922593 -0.027305 
0.943345 -0.033081 -0.180741 
0.386355 -0.685217 -0.579046 
0.570988 -0.618890 -0.488131 
-0.909748 0.130651 0.375644 
0.737442 -0.567446 0.286619 
0.790695 0.241508 0.502795 
-0.958224 -0.281188 0.048068 
-0.695124 0.300935 -0.630428 
-0.790605 0.119425 0.579447 
-0.654813 -0.375546 -0.645297 
-0.568840 0.593105 -0.542118 
-0.848623 0.309667 -0.404709 
-0.931195 0.026801 -0.342495 
0.392086 -0.109389 -0.883303 
-0.717646 0.560186 -0.386228 
-0.821938 -0.372369 -0.417972 
0.302688 -0.571207 0.736417 
0.009973 0.609508 0.762826 
0.058151 -0.661877 -0.724646 
0.496115 -0.519554 0.659646 
-0.524825 0.234278 0.804083 
-0.487857 -0.217358 0.833938 
0.893851 0.099501 0.345627 
0.895664 0.349405 0.033621 
-0.730318 0.395092 0.542990 
0.379668 0.795403 0.400714 
0.097143 0.254235 0.938354 
0.566474 0.540709 0.570548 
0.499974 -0.523497 -0.651974 
-0.024158 -0.866414 -0.467001 
0.061572 -0.389673 0.902086 
-0.759030 -0.348908 -0.539125 
0.080594 0.357470 -0.900495 
-0.767509 0.581125 0.225298 
-0.158528 0.677625 -0.685449 
-0.969682 0.116548 0.198429 
0.335592 0.895154 -0.150330 
0.798943 0.191699 -0.501952 
0.833240 -0.117664 0.479529 
0.665999 -0.709439 -0.033130 
-0.843017 -0.074561 -0.517721 
0.660833 -0.704900 0.119567 
0.378058 -0.598060 -0.673739 
0.087904 -0.755534 -0.620522 
0.767121 -0.412551 0.428970 
0.915079 0.203936 0.217264 
0.927404 -0.262651 -0.012794 
-0.656582 0.317757 0.670177 
0.352235 -0.659068 0.635011 
0.492780 0.818010 -0.145190 
0.340488 0.669033 -0.609130 
0.791991 0.507033 -0.193913 
0.213243 0.939902 0.101832 
-0.534186 -0.809898 -0.215587 
-0.518427 -0.700507 -0.473861 
-0.510645 -0.806953 0.281312 
0.645994 -0.328919 0.649037 
-0.411170 0.880653 -0.083660 
-0.702539 -0.157181 0.684128 
-0.885311 0.446862 0.027252 
0.474421 -0.838035 -0.164389 
-0.752536 -0.043566 0.647611 
0.654959 0.600930 -0.368585 
0.252698 -0.912160 0.255994 
0.593439 0.224613 0.729988 
0.110517 -0.954623 0.219195 
-0.910120 -0.402259 0.039879 
-0.750235 0.172378 -0.622740 
0.579969 -0.559309 0.549314 
0.580119 0.671362 0.376606 
-0.282909 -0.500844 0.802290 
0.804791 -0.449526 0.307425 
0.200814 0.084111 -0.947092 
0.156674 0.959278 -0.029687 
0.240397 -0.680572 -0.662431 
-0.073882 -0.125532 -0.970536 
-0.817337 0.353112 0.427415 
-0.810490 0.565843 0.060041 
0.674022 -0.560233 0.421737 
0.499205 0.304884 0.769038 
0.257594 0.781444 0.512745 
-0.563055 -0.134156 -0.802531 
-0.515374 0.515149 0.663345 
-0.796499 -0.574110 -0.178511 
0.641069 0.677236 -0.239741 
0.719073 0.201225 0.608992 
0.242622 0.268807 0.905619 
0.587231 0.021635 -0.766198 
-0.798366 0.575575 -0.103677 
-0.453726 0.688826 -0.528967 
0.615413 -0.221066 0.720492 
-0.393853 -0.418465 -0.803970 
0.549281 0.505632 -0.615545 
0.886558 -0.320766 0.211410 
-0.056058 -0.959566 0.219736 
-0.774712 -0.175486 -0.595158 
0.382540 -0.865721 0.249939 
-0.449105 0.785267 -0.374656 
0.340351 0.392619 0.822571 
-0.030220 -0.796587 -0.580352 
-0.248037 -0.635945 0.714161 
-0.047421 0.559850 -0.796885 
0.754139 -0.386016 -0.469408 
-0.513092 -0.028958 0.844075 
0.566552 0.603545 -0.497126 
-0.591135 0.459329 -0.639746 
-0.262841 -0.650027 -0.695872 
0.491692 -0.181621 -0.815755 
-0.672085 0.511298 -0.511674 
-0.513177 -0.738988 0.421868 
0.153267 -0.687186 0.684675 
-0.769322 -0.218617 0.591390 
0.122469 -0.908172 -0.357164 
-0.185367 -0.337588 0.907916 
-0.703407 -0.686737 -0.151150 
0.130027 -0.470547 -0.849820 
0.219183 -0.362526 -0.876581 
0.554169 0.685240 -0.384013 
-0.506330 -0.783711 -0.343385 
-0.716716 0.621038 -0.266518 
0.504852 -0.671548 0.494424 
0.490861 0.168386 0.820494 
-0.426406 -0.337438 0.828389 
-0.134907 -0.896491 -0.387377 
-0.453402 -0.174249 -0.858831 
0.345238 0.651524 0.627538 
0.529176 -0.797402 0.195313 
0.258833 0.211659 -0.912365 
0.675711 -0.679466 -0.169291 
0.646524 -0.443352 0.575516 
0.125742 -0.122971 -0.959826 
0.806638 0.420020 -0.311333 
-0.064740 -0.432068 0.884081 
0.808939 0.518924 -0.067630 
-0.170354 0.871387 0.407543 
0.865613 -0.412697 -0.120225 
-0.330897 0.817371 -0.428095 
0.742770 -0.608343 0.132624 
-0.253387 0.185809 0.933968 
0.497260 -0.773544 0.334057 
0.428563 -0.293443 0.830369 
-0.307678 -0.349443 0.872413 
0.421296 0.712053 -0.496973 
0.679277 -0.065032 0.689750 
-0.974954 -0.153951 -0.138721 
-0.575759 0.679988 0.414198 
-0.230790 -0.890203 0.371219 
0.168597 0.614744 -0.730157 
0.936515 0.203995 0.064833 
-0.814844 -0.433177 0.386330 
0.809716 0.498722 0.141798 
0.460347 -0.170991 0.846155 
-0.247261 -0.798315 0.530632 
0.473807 -0.011676 -0.845609 
-0.295917 -0.311104 -0.889149 
-0.209445 0.925807 0.221933 
0.241733 0.873621 -0.336112 
0.385381 -0.901447 -0.023607 
0.307928 0.379951 -0.837733 
0.172816 0.613960 0.738073 
0.662747 0.697203 0.041456 
0.063782 -0.171364 0.961950 
0.843259 -0.440219 0.175470 
-0.654916 -0.500107 -0.554448 
0.503582 -0.717786 -0.426811 
-0.549003 0.756181 0.296263 
0.229413 -0.772077 -0.563530 
0.519470 0.398483 -0.710983 
-0.975175 0.072161 -0.193914 
-0.460517 0.679221 0.539598 
0.252967 -0.947539 -0.056587 
-0.422757 -0.871419 -0.218733 
0.552088 0.229993 -0.762916 
0.933591 -0.079754 0.225521 
0.580446 -0.685832 0.375119 
-0.373109 -0.657582 0.641934 
-0.126982 -0.977968 0.067686 
-0.843305 0.069159 -0.521165 
0.654964 0.086227 0.707736 
0.089461 -0.526456 0.825907 
0.369613 0.170461 0.884671 
-0.122502 0.144264 0.962206 
0.121645 -0.280613 0.933846 
-0.033522 0.011966 -0.978778 
0.046133 -0.643214 0.742101 
-0.011890 0.971476 -0.038316 
-0.512365 0.276023 -0.796535 
-0.359180 -0.900554 0.203550 
-0.124500 0.692345 0.674748 
-0.155583 -0.590504 -0.770918 
0.776420 -0.266790 -0.511882 
0.851440 -0.240127 -0.386933 
-0.007820 -0.920157 -0.353234 
0.375453 0.860946 0.228315 
-0.528751 0.818486 -0.120077 
0.525157 0.442422 0.685276 
-0.705921 -0.701385 -0.021288 
-0.909115 -0.258538 -0.318922 
-0.886073 0.271178 0.358061 
0.855158 0.103794 -0.429651 
-0.282165 0.934812 -0.002780 
0.033993 0.953580 -0.170222 
-0.683800 -0.299097 0.657394 
0.887092 0.347491 -0.128772 
0.907869 0.097293 -0.308963 
-0.356481 0.037978 0.917828 
-0.879768 0.157301 -0.429758 
0.679817 -0.535743 -0.434187 
-0.758657 -0.636665 0.084349 
-0.387433 -0.765250 -0.498376 
-0.566754 0.600707 0.534569 
0.164849 -0.957692 -0.157842 
0.012678 -0.751413 0.636959 
-0.910886 -0.025081 0.400801 
-0.589466 -0.389465 0.699592 
0.228603 0.702801 0.627626 
0.629116 0.341728 -0.640597 
-0.210788 -0.745969 -0.612638 
-0.880731 0.434083 -0.108092 
-0.718590 0.675705 0.039240 
0.844218 0.264878 -0.376233 
-0.952519 0.241138 -0.160092 
-0.892665 0.360259 -0.237678 
-0.550823 -0.261719 -0.775647 
0.324801 -0.841206 0.383346 
-0.008411 0.882242 0.404330 
0.718512 -0.601856 -0.267685 
-0.042989 -0.379095 -0.907104 
-0.986480 0.100406 -0.035594 
0.332479 -0.217381 0.891300 
0.332345 -0.893295 -0.225500 
-0.759511 -0.000709 -0.635764 
-0.367419 0.897542 0.126204 
-0.068725 -0.154969 0.967652 
0.416660 0.867187 -0.002992 
-0.979348 -0.016273 0.189061 
-0.347114 0.276998 -0.872287 
0.719441 0.619317 -0.157892 
-0.455686 0.589802 -0.634643 
-0.684432 0.706886 -0.078519 
0.427177 0.267675 -0.828729 
-0.357483 -0.865025 0.332122 
-0.546952 -0.384745 -0.733075 
0.330376 -0.397557 -0.827462 
-0.428281 -0.533926 -0.713440 
0.168868 0.907892 0.285912 
0.100190 -0.978952 0.014667 
-0.141778 0.013328 0.969716 
0.750638 -0.611065 -0.047837 
0.237971 -0.839804 -0.452429 
-0.404867 0.267430 0.854708 
-0.879655 -0.402651 -0.242102 
0.949261 -0.148622 -0.113701 
0.721363 0.233255 -0.595868 
0.200314 -0.865844 0.423339 
0.652701 0.168069 -0.691751 
0.344908 -0.769714 -0.490827 
0.120208 0.033073 0.971180 
-0.247681 -0.197423 -0.931725 
0.928054 0.172126 -0.195355 
0.824719 -0.507723 -0.031195 
0.061761 0.686432 -0.686660 
0.499282 0.767490 -0.296761 
-0.936358 0.155629 -0.290051 
-0.894669 -0.434683 -0.087436 
-0.147253 -0.282845 -0.927346 
-0.581717 -0.132873 0.790806 
-0.364986 0.511874 -0.753045 
0.703478 0.572596 0.328966 
-0.487255 0.113571 0.854297 
-0.448207 0.011954 -0.876230 
-0.145290 0.190573 -0.949595 
0.591745 0.758388 -0.092401 
0.499554 0.662296 0.500956 
0.771170 -0.074301 0.583243 
0.463768 -0.793001 -0.331102 
-0.161574 -0.018712 -0.963748 
-0.358266 -0.802866 0.458003 
0.540925 0.762516 0.246477 
-0.107879 -0.678719 0.711281 
-0.353315 -0.837032 -0.395134 
-0.355997 0.411853 0.819508 
0.167545 0.727973 -0.619365 
0.733805 0.607677 0.124499 
-0.592833 -0.793718 -0.087755 
-0.675517 0.649289 0.316439 
0.302645 0.023688 0.927719 
0.630466 -0.496142 -0.548070 
0.421241 -0.767160 0.441231 
0.087925 0.390548 0.893500 
-0.631727 0.466663 0.597825 
-0.202387 -0.828579 -0.503354 
-0.975372 -0.159822 0.132032 
0.874997 0.310353 -0.254049 
0.139227 0.866013 0.418616 
0.831226 0.123926 0.474582 
0.817213 -0.046653 -0.513553 
0.961445 0.006443 -0.040976 
-0.928750 -0.295853 0.215446 
-0.790500 -0.531154 0.292165 
-0.594659 -0.257447 0.751548 
0.569751 0.000936 0.784997 
-0.789166 0.444882 -0.387161 
0.430400 0.009929 0.873050 
-0.568101 0.758855 -0.254892 
-0.946915 0.288917 -0.036270 
-0.121019 -0.975317 -0.095597 
0.093375 -0.362105 -0.905867 
-0.160303 -0.527371 0.819322 
-0.493869 -0.861084 -0.015013 
-0.193596 -0.205834 0.943563 
0.035911 0.813958 0.531801 
0.171420 -0.807675 0.532200 
-0.388161 0.131278 -0.896411 
0.859999 0.002234 0.436180 
-0.014352 0.137059 -0.965243 
0.603476 -0.127835 -0.749244 
-0.795713 -0.597749 -0.044042 
-0.266992 0.609433 -0.720256 
-0.390310 -0.084587 0.903233 
-0.624947 0.755570 0.100079 
-0.244864 -0.958330 -0.061834 
-0.273774 0.054885 -0.941578 
-0.726228 -0.636303 0.242300 
-0.420165 -0.723909 0.535248 
-0.912554 0.365606 0.123308 
0.045144 -0.981010 -0.100964 
-0.231596 0.802441 0.505792 
0.205650 0.933202 -0.170451 
0.088592 0.234227 -0.941472 
0.335453 -0.844958 -0.364293 
0.159094 -0.251624 -0.930909 
-0.931480 0.245392 0.234471 
0.189583 -0.078166 0.956964 
-0.000646 -0.980454 0.097179 
0.950351 0.071567 0.126667 
-0.684666 -0.121346 -0.705046 
-0.956766 0.248677 0.092472 
-0.079307 0.943893 -0.227153 
-0.360470 -0.092772 -0.912286 
-0.123144 0.959006 -0.105919 
-0.093307 -0.800397 0.572590 
0.785018 0.484194 0.273872 
-0.550783 -0.491032 -0.659872 
0.704960 -0.095210 -0.651835 
-0.723068 0.211350 0.646230 
0.752028 0.061829 0.605137 
-0.368726 -0.917401 -0.070788 
-0.561126 -0.630939 0.526974 
-0.047745 0.756925 -0.607937 
0.878755 -0.403986 0.038056 
-0.319818 -0.197654 0.912333 
-0.668860 0.025286 -0.728548 
-0.187870 -0.409678 -0.875519 
0.017554 -0.959556 -0.230237 
-0.354176 -0.925370 0.076105 
-0.657570 0.191351 -0.713706 
-0.112146 0.783789 0.569388 
-0.964292 -0.054224 -0.246213 
-0.003323 -0.229239 -0.952053 
-0.681825 0.683944 0.190275 
0.624606 -0.698565 0.250574 
-0.255281 -0.076229 0.948189 
0.928945 0.229820 -0.073898 
-0.680134 -0.245419 -0.680288
